x,y,z,intensity
8.721819,4.4166327,2.185653,1.0
8.544898,4.3943224,2.1475644,1.0
8.432502,4.4035063,2.1258628,1.0
8.261812,4.380264,2.089103,45.0
8.071168,4.343916,2.0470285,31.0
7.958241,4.3475986,2.024884,105.0
8.686949,4.5333457,1.6734896,1.0
7.854118,4.338653,2.0031824,111.0
8.578296,4.545236,1.6576957,1.0
7.757041,4.348654,1.985024,101.0
8.045755,4.343548,2.5625203,1.0
8.455974,4.5484447,1.6391549,26.0
7.7007833,4.3808455,1.9774948,119.0
8.809165,4.403759,2.1451015,25.0
7.9660673,4.365237,2.545578,1.0
7.6444287,4.4125032,1.9699657,114.0
8.539049,4.336628,2.0850348,93.0
7.9502373,4.421775,2.5494037,1.0
7.574536,4.4357104,1.9588934,82.0
8.515108,4.3919773,2.085899,98.0
7.788434,4.395687,2.5056818,17.0
7.471165,4.438214,1.9389634,131.0
8.376512,4.387641,2.0582423,106.0
7.6989713,4.40902,2.4854603,32.0
7.4047647,4.461827,1.9287769,86.0
8.264201,4.3954372,2.0370677,98.0
7.573355,4.384283,2.4510295,30.0
7.3054786,4.448808,1.9079611,130.0
8.1091,4.3624673,2.003361,75.0
7.530749,4.422977,2.4461107,1.0
7.2359586,4.4689016,1.8968889,90.0
7.954553,4.3443527,1.971383,68.0
7.3031034,4.3505898,2.3799815,1.0
8.650912,4.5509567,1.6182158,27.0
7.151622,4.4789457,1.8818306,114.0
7.9134197,4.3867035,1.9679259,56.0
7.3693447,4.4533286,2.4111333,143.0
8.125107,4.342504,2.5088968,1.0
8.505474,4.5432167,1.595883,121.0
7.095393,4.50595,1.8743014,88.0
7.8567324,4.420126,1.9605796,65.0
7.292081,4.4692664,2.3947375,78.0
7.9076486,4.2909184,2.44928,1.0
8.405603,4.558177,1.5822167,41.0
7.022736,4.5218263,1.8623434,118.0
7.7574873,4.428902,1.9424299,130.0
7.1871734,4.4670787,2.369051,117.0
6.938747,4.529478,1.8472852,90.0
7.653369,4.4336824,1.9229838,88.0
7.113988,4.468028,2.3515623,79.0
7.942623,4.4233837,2.4753623,1.0
6.879939,4.537337,1.8370987,122.0
7.5665846,4.431364,1.9061306,145.0
8.5347805,4.330037,2.0126023,1.0
7.0225854,4.4721804,2.3302479,126.0
6.812446,4.5543637,1.8264693,89.0
7.4814343,4.445039,1.8914379,78.0
8.510879,4.385376,2.013439,112.0
6.9669147,4.498408,2.320957,99.0
7.7072396,4.420619,2.418407,1.0
6.7450123,4.570722,1.81584,108.0
7.3997626,4.4598284,1.8776095,131.0
8.381031,4.385051,1.9887595,107.0
6.895122,4.513536,2.3062007,94.0
7.589215,4.4168015,2.3896632,1.0
6.6712236,4.5819817,1.803439,114.0
7.3265452,4.478841,1.8659419,71.0
8.268779,4.392482,1.9682629,102.0
6.813814,4.521535,2.2881656,110.0
7.5081177,4.433156,2.37263,1.0
6.6119423,4.6025596,1.7950242,81.0
7.2334375,4.48481,1.8490885,130.0
8.165364,4.4033375,1.949858,90.0
6.729492,4.526536,2.2690372,83.0
7.4403663,4.4565616,2.359855,85.0
7.7388577,4.6329584,1.4905525,1.0
6.539941,4.6135483,1.7830662,107.0
7.1637254,4.504284,1.8382852,75.0
8.051862,4.4074116,1.928943,123.0
6.6604304,4.5256395,2.2526414,102.0
7.3614793,4.4567647,2.3412247,59.0
6.4737334,4.6125135,1.7706652,74.0
7.1028023,4.512954,1.8279139,111.0
7.9711876,4.4120235,1.9143027,87.0
6.5733404,4.526875,2.2324202,97.0
7.2609406,4.4587145,2.3178036,61.0
7.0233383,4.5248313,1.8145177,95.0
7.854752,4.412015,1.8925513,108.0
6.500674,4.5371428,2.2171175,92.0
7.185254,4.474807,2.3023672,52.0
8.09455,4.3617997,2.4292867,35.0
7.998002,4.9767404,1.5582174,1.0
6.9571075,4.544401,1.8045785,101.0
8.357374,4.5422726,1.5054858,159.0
7.7708764,4.4291935,1.8787476,90.0
6.423435,4.5433326,2.2001753,104.0
7.101492,4.4849977,2.2842693,58.0
8.016201,4.3846483,2.4137564,38.0
6.540462,4.849096,1.8145113,1.0
6.890909,4.563318,1.7946395,106.0
8.345936,4.6042676,1.508681,166.0
7.682025,4.4425445,1.8636888,111.0
8.681247,4.4330945,1.9627115,1.0
6.366668,4.563355,2.190338,83.0
7.021139,4.4963856,2.2672358,77.0
7.9311376,4.40292,2.396155,31.0
6.4351554,4.8336816,1.7932526,1.0
6.8166294,4.5761614,1.7825396,111.0
7.6051073,4.4619102,1.8515582,104.0
8.531337,4.4246655,1.9346141,1.0
6.271062,4.5544786,2.1668375,83.0
6.9295897,4.499621,2.2464764,67.0
7.831035,4.411729,2.3738947,39.0
6.3643827,4.8432083,1.7817374,1.0
6.765102,4.6035767,1.7764897,79.0
7.4930067,4.459399,1.8306434,76.0
8.367997,4.407256,1.9033055,93.0
6.2077255,4.553147,2.1520813,87.0
6.86956,4.5069404,2.2337015,94.0
7.7917175,4.438023,2.3682003,18.0
5.8398695,4.4856415,1.6377982,1.0
6.706258,4.610055,1.7665507,55.0
7.450153,4.481503,1.8252056,127.0
8.307317,4.4255385,1.8940735,52.0
6.138926,4.5621185,2.1378717,83.0
6.7880464,4.514913,2.2161357,92.0
7.60332,4.3937297,2.318503,6.0
6.538704,4.8443675,1.3840482,1.0
5.920621,4.6075873,1.6692435,125.0
7.983008,4.6519456,1.4613907,1.0
7.3668313,4.4944816,1.8114018,90.0
8.186174,4.4275174,1.8723984,81.0
6.0779295,4.576213,2.1263947,96.0
6.722718,4.532778,2.203893,82.0
5.902851,4.6755304,2.5154874,1.0
7.523971,4.411007,2.3024547,1.0
6.387032,4.7939734,1.3576105,1.0
5.874742,4.6313686,1.6643716,97.0
7.8959126,4.6677246,1.4505268,1.0
7.2770004,4.502459,1.7959249,107.0
8.039544,4.414063,1.8447024,90.0
6.01242,4.586209,2.1132782,95.0
6.6462736,4.5424147,2.1879241,84.0
5.815861,4.6661386,2.4904616,1.0
7.4563136,4.4344015,2.2900302,142.0
8.318964,4.354972,2.3945997,40.0
6.4538336,4.908201,1.378898,57.0
5.8576922,4.6779585,1.6679147,116.0
6.747038,4.827361,1.8015536,1.0
7.795409,4.674441,1.4371066,1.0
7.215483,4.5272245,1.7875589,107.0
7.9448204,4.4274416,1.8290482,122.0
5.9591794,4.605007,2.1045337,109.0
6.5779133,4.55674,2.1746168,83.0
5.757093,4.6786146,2.4776278,55.0
7.39692,4.46213,2.2801943,60.0
6.424425,4.949861,1.3792413,47.0
6.7530003,4.895932,1.8114928,1.0
7.6850286,4.6739016,1.4217691,1.0
7.127582,4.534535,1.7725003,111.0
7.8212185,4.4234743,1.8065702,104.0
5.901406,4.6197486,2.0941498,110.0
6.495411,4.560453,2.156519,85.0
5.6794295,4.6748347,2.456452,44.0
7.297982,4.464997,2.257934,94.0
8.104926,4.3739944,2.3480139,38.0
6.3916473,4.9889126,1.378898,46.0
6.638548,4.877195,1.7885896,1.0
7.0612082,4.5547547,1.7628795,73.0
7.754135,4.4501867,1.7973382,102.0
5.846437,4.6211705,2.0821264,115.0
6.4281607,4.558787,2.1410825,89.0
5.648616,4.694258,2.452602,36.0
7.211232,4.458544,2.2372267,92.0
8.011054,4.372414,2.3264744,57.0
6.381966,5.029989,1.381988,29.0
6.785949,4.809745,1.371889,1.0
5.82847,4.8221245,1.6834159,1.0
6.536936,4.8504395,1.7669828,1.0
7.552864,4.707806,1.4064318,1.0
8.418797,4.6494503,1.4348121,38.0
7.0004044,4.5622554,1.7528403,86.0
7.6770787,4.454357,1.7840923,95.0
5.7948084,4.6397147,2.0739284,95.0
6.358612,4.5699387,2.1272428,83.0
5.6031055,4.716194,2.4455433,97.0
6.240023,4.707929,2.5583987,1.0
7.1373167,4.4749207,2.2227316,89.0
7.9647694,4.4123826,2.3209643,134.0
6.3548465,5.0736876,1.3830181,56.0
6.7122736,4.8213315,1.3628893,1.0
5.727957,4.799586,1.6626,156.0
6.476619,4.869195,1.7587721,14.0
7.4598093,4.7149396,1.3942897,1.0
8.220202,4.60788,1.4052227,44.0
7.598217,4.472804,1.7720506,80.0
5.726779,4.6444182,2.0597188,121.0
6.2923007,4.5826592,2.1144679,81.0
5.535971,4.7192507,2.4288592,50.0
6.0833864,4.6505404,2.5054903,1.0
7.0423217,4.477021,2.2015066,88.0
7.9064703,4.445327,2.3119476,49.0
6.3457756,5.1321583,1.3881683,78.0
6.662681,4.8495317,1.3588895,1.0
5.712523,4.848141,1.667029,65.0
6.4365582,4.902716,1.7561793,49.0
7.373605,4.7253675,1.3834257,1.0
8.204853,4.667228,1.4076381,109.0
7.5143747,4.487435,1.7588047,85.0
8.491957,4.3833547,1.8323047,1.0
5.6752357,4.661929,2.051521,99.0
6.222974,4.592447,2.1006281,97.0
5.4690213,4.721651,2.4121754,80.0
6.013442,4.657397,2.4884841,75.0
6.962175,4.4875617,2.1849408,87.0
7.711674,4.400297,2.2623565,83.0
6.3194885,5.176938,1.3895417,53.0
6.6082296,4.8738,1.3538896,146.0
6.3715496,4.916901,1.7466724,67.0
7.3007903,4.743536,1.375118,1.0
8.139362,4.6980114,1.4012975,113.0
7.450789,4.5133247,1.7503754,65.0
8.379153,4.39179,1.8135194,156.0
5.608945,4.6666307,2.037858,89.0
6.146039,4.5957932,2.0841272,82.0
5.931681,4.6542172,2.466439,110.0
6.8854046,4.4993944,2.1694105,86.0
7.610047,4.4061465,2.240316,49.0
6.3276916,5.250614,1.398812,39.0
6.579059,4.9164004,1.3542229,48.0
6.309701,4.9328613,1.7380297,48.0
7.234625,4.765337,1.3680884,1.0
8.051604,4.715216,1.3910317,89.0
7.377146,4.5324626,1.7395378,31.0
8.316777,4.425833,1.8058519,106.0
5.5501585,4.6769037,2.0269275,99.0
6.073929,4.6018357,2.069223,82.0
5.854667,4.6537275,2.4462836,85.0
6.808763,4.510441,2.15388,81.0
7.3849416,4.3386083,2.1812074,148.0
8.608719,4.3952913,2.370921,136.0
6.344248,5.332225,1.4101425,8.0
6.5527644,4.9611998,1.3552228,62.0
6.269379,4.965158,1.7354368,52.0
7.152082,4.775492,1.3578634,1.0
7.9571447,4.727481,1.3795583,90.0
8.216412,4.422011,1.7882168,100.0
5.4783554,4.660481,2.0083456,53.0
6.018422,4.6047254,2.0575125,73.0
5.8000326,4.6552143,2.4324265,89.0
6.737746,4.509044,2.137832,99.0
7.444438,4.420626,2.2052515,166.0
8.457002,4.3678436,2.3342133,105.0
6.53873,4.999187,1.3572228,97.0
6.2367425,4.9873524,1.732844,18.0
7.1180596,4.801387,1.3556267,1.0
7.8753777,4.7294316,1.3689907,81.0
6.762412,4.7635365,1.7348536,1.0
8.117923,4.4348097,1.7724985,131.0
5.412616,4.663313,1.9946826,48.0
5.961887,4.621264,2.0479312,93.0
5.736717,4.664116,2.4179397,102.0
6.662998,4.519723,2.1228192,80.0
7.3633657,4.4354687,2.189222,111.0
8.273159,4.33853,2.2902608,115.0
6.5103145,5.0425797,1.3578894,70.0
7.0519543,4.8214164,1.348597,142.0
7.796474,4.7491026,1.3602346,74.0
6.799086,4.8538213,1.752422,1.0
8.019601,4.446547,1.7567801,99.0
5.381763,4.69596,1.9941361,41.0
5.896266,4.630155,2.0351562,86.0
5.6793947,4.677218,2.4059725,97.0
6.5899734,4.53074,2.108324,85.0
7.280748,4.448462,2.1726916,105.0
6.414709,4.627012,2.526784,1.0
7.8067756,4.3640842,2.6805968,1.0
6.4862747,5.0894527,1.3595561,80.0
5.7742014,4.7393446,1.6187602,1.0
6.9664383,4.827265,1.3377331,167.0
7.7142673,4.765899,1.3508748,69.0
6.8301454,4.9413023,1.7687355,1.0
7.7789674,5.0338707,1.8639692,1.0
7.9351225,4.4649563,1.7441288,116.0
5.3262672,4.7066765,1.9842986,29.0
5.84589,4.650366,2.027704,95.0
5.0927606,4.7273684,2.3184886,1.0
5.622135,4.6897845,2.394005,104.0
6.5234036,4.545453,2.0958996,71.0
7.203204,4.4636416,2.157664,104.0
6.30885,4.6108904,2.4959679,1.0
8.069625,4.3615346,2.2482402,56.0
7.7393036,4.3902955,2.666651,1.0
6.4572625,5.132553,1.3602227,80.0
5.7969847,4.819081,1.6338849,140.0
6.892421,4.8402004,1.3291059,115.0
7.622093,4.775576,1.3397032,59.0
6.6462326,4.8715897,1.7281609,1.0
7.7832775,5.1062136,1.8727998,1.0
7.849029,4.481504,1.7310941,70.0
5.250831,4.698863,1.9668099,82.0
5.7714224,4.6508384,2.0117352,89.0
5.0602045,4.7566705,2.3172052,1.0
5.5547695,4.6932697,2.3776288,91.0
6.438009,4.5460887,2.077263,69.0
7.1142664,4.47084,2.1391299,99.0
6.218711,4.6049867,2.471315,14.0
7.975782,4.3755965,2.2294035,95.0
7.685064,4.4235005,2.6573539,1.0
6.4418163,5.1865864,1.3638892,77.0
5.7680883,4.8566628,1.634317,62.0
6.839392,4.86733,1.3246324,71.0
7.570212,4.8096385,1.3357781,53.0
6.609224,4.9085727,1.7264876,1.0
7.790252,5.180971,1.8824332,1.0
8.669265,4.423062,1.7771549,1.0
5.219782,4.730466,1.9662634,127.0
5.7286153,4.6760745,2.0069447,83.0
5.0042224,4.763479,2.3050132,15.0
5.506377,4.7120867,2.3694406,88.0
6.38266,4.5672693,2.0684624,75.0
7.033702,4.482281,2.1231005,135.0
6.1683893,4.627927,2.4626865,58.0
7.8905516,4.3933926,2.2129817,94.0
7.668671,4.478482,2.6614215,1.0
6.4152265,5.2319293,1.3652226,63.0
6.7751055,4.885874,1.3179224,63.0
7.489908,4.825101,1.3267201,52.0
6.556414,4.9334855,1.7206315,1.0
8.559121,4.4180584,1.7584925,1.0
5.1677027,4.7276535,1.9547864,109.0
5.6781855,4.6797996,1.996831,98.0
5.4337153,4.6946893,2.3473954,77.0
6.321996,4.568905,2.0555205,62.0
6.9668474,4.486137,2.1090748,111.0
6.09808,4.6200466,2.4429643,85.0
6.8485746,4.6413164,2.5642424,1.0
7.7836185,4.381775,2.188349,35.0
6.4332123,5.2970963,1.3745557,61.0
6.76953,4.930575,1.3214371,112.0
7.45879,4.8549685,1.3252105,46.0
6.6014805,5.016561,1.7390366,1.0
7.694588,4.5711627,1.7138424,1.0
8.456225,4.4326553,1.7427576,80.0
5.1181912,4.7416673,1.9471351,97.0
5.611585,4.6846004,1.9835237,80.0
4.931238,4.798339,2.2953877,1.0
5.378333,4.7063103,2.336058,62.0
6.2573853,4.5821915,2.0436137,53.0
6.8898053,4.498187,2.094047,109.0
6.0357943,4.6326957,2.4294052,86.0
6.682219,4.590603,2.512086,1.0
7.6768317,4.3851676,2.1656482,36.0
6.4028378,5.339931,1.3752223,55.0
5.511786,5.342138,1.7086606,1.0
6.7209744,4.960073,1.3179224,36.0
7.406654,4.8876305,1.3212854,31.0
6.6270614,5.1022243,1.7545135,1.0
6.758099,4.6679416,1.648422,1.0
7.519647,4.530944,1.680489,1.0
8.377814,4.4590173,1.7321455,80.0
5.06591,4.7526054,1.9383907,97.0
5.552528,4.694953,1.9728779,71.0
4.895611,4.823894,2.2928212,19.0
6.166535,4.5752096,2.0229065,67.0
6.811271,4.508383,2.0785186,118.0
5.966097,4.6388855,2.4127645,96.0
6.5842257,4.5846987,2.485708,1.0
7.593789,4.401072,2.1497092,19.0
8.634061,4.4008613,2.2717807,1.0
6.3918037,5.3990884,1.3802222,26.0
5.5308676,5.4287176,1.7254905,1.0
7.398839,4.9494085,1.3255124,57.0
6.617961,5.161861,1.760788,36.0
6.7945595,4.7562175,1.6648791,1.0
7.7485976,4.7363334,1.7395284,1.0
7.627543,5.8232994,1.262104,1.0
5.0136943,4.763075,1.9296464,101.0
5.496499,4.7072496,1.9632967,63.0
4.7729554,4.761965,2.2485445,16.0
6.122256,4.6022153,2.0177298,43.0
6.7296624,4.5156207,2.061988,122.0
5.8816466,4.6325703,2.3899605,87.0
6.4928203,4.582131,2.461728,29.0
7.4841204,4.400306,2.1260426,177.0
8.473048,4.3864307,2.2361276,1.0
7.9631157,4.327726,2.6211395,1.0
6.4086185,6.07626,1.5049063,1.0
6.392291,5.468544,1.3878887,50.0
6.526169,4.94367,1.2910819,1.0
7.3462896,4.981423,1.3215872,63.0
6.6160297,5.227665,1.7691538,11.0
7.728682,4.791153,1.7418286,1.0
8.164057,4.4782324,1.698846,1.0
4.969843,4.7811036,1.9241811,103.0
5.455135,4.7316194,1.9590383,47.0
5.2478294,4.769938,2.317792,1.0
6.0472054,4.605355,2.0021992,71.0
6.6594596,4.5296073,2.0489643,136.0
5.827194,4.6491923,2.379483,81.0
6.4172573,4.5896573,2.4437432,48.0
7.436351,4.4352665,2.1202466,101.0
8.300493,4.363842,2.1972332,47.0
7.892019,4.3536687,2.6065152,1.0
6.3391156,6.0863132,1.4973526,1.0
6.363779,5.5137506,1.3892219,48.0
6.543439,5.02196,1.3009872,45.0
7.257729,4.9884186,1.3110197,45.0
6.2965517,5.0386777,1.6905142,23.0
6.8362517,4.914168,1.6905681,1.0
7.7365937,4.8637323,1.7506462,1.0
4.9273376,4.8001165,1.9192624,101.0
5.423846,4.764533,1.958506,19.0
4.6454206,4.7522755,2.2158184,5.0
5.188349,4.775904,2.304565,1.0
5.9891496,4.62076,1.9923632,98.0
6.5765734,4.534131,2.0319328,139.0
5.7624307,4.656914,2.3646913,95.0
6.343406,4.5975313,2.4263577,26.0
7.337034,4.4385366,2.0994778,131.0
8.226514,4.391272,2.1847315,20.0
7.849417,4.3947654,2.6014528,35.0
6.268331,6.0943575,1.4894557,1.0
6.366145,5.586054,1.397555,34.0
6.625317,5.151719,1.3243129,90.0
7.2164936,5.027163,1.309208,52.0
5.9145246,4.79277,1.5938877,1.0
6.771924,4.932879,1.6821389,1.0
7.7334423,4.912811,1.7552466,1.0
4.9060307,4.8246355,1.9198089,106.0
5.3536158,4.747962,1.9409404,9.0
4.6531863,4.805505,2.2305772,1.0
5.1671796,4.8015885,2.3051949,14.0
5.9399347,4.6274877,1.983045,79.0
6.523299,4.543022,2.0219145,143.0
5.725713,4.671948,2.3585281,69.0
6.287734,4.602667,2.4131687,60.0
7.2763543,4.448671,2.087886,103.0
8.214299,4.4345927,2.1870465,6.0
7.102821,4.5455594,2.52545,1.0
7.761726,4.394037,2.578954,40.0
6.2676024,6.151496,1.4963226,1.0
6.611816,5.191444,1.3265495,92.0
7.1684303,5.0441046,1.304679,45.0
5.7498984,4.703793,1.5545678,1.0
6.745441,4.962422,1.6813362,15.0
7.773279,5.007168,1.7717317,1.0
4.8552322,4.834942,1.9116111,114.0
5.2891674,4.7506866,1.9281653,25.0
4.545908,4.753636,2.1927176,1.0
5.062057,4.7639284,2.2711823,1.0
5.869885,4.6322937,1.9690676,75.0
6.440744,4.5460954,2.0048833,145.0
5.661127,4.678643,2.3437364,80.0
6.2064843,4.6035724,2.3927858,42.0
7.177438,4.4501543,2.0671172,138.0
8.013737,4.3920536,2.1402807,1.0
6.9667277,4.5200467,2.486518,1.0
7.605651,4.369398,2.5356438,22.0
6.58832,5.240281,1.3284668,91.0
7.154332,5.1016307,1.3080003,25.0
5.8719864,4.8662763,1.5968158,97.0
6.729866,5.016378,1.6853501,52.0
7.771205,5.0752945,1.7786324,1.0
4.834212,4.8749433,1.9154367,104.0
5.2434855,4.769601,1.9223101,63.0
4.5820622,4.8525476,2.2254436,42.0
5.8225956,4.654559,1.9628553,86.0
6.3899646,4.57076,1.9978703,160.0
5.64763,4.727599,2.3505158,40.0
6.140757,4.6150627,2.3783977,58.0
7.1050406,4.467164,2.0540764,110.0
7.860005,4.372608,2.1060166,1.0
6.8280473,4.490895,2.4464238,1.0
7.5564623,4.404585,2.5283315,1.0
5.3458877,5.6405625,1.7303622,1.0
6.572143,5.295239,1.3319815,84.0
7.123742,5.147636,1.3083022,50.0
6.688816,5.0515013,1.6829417,58.0
7.7963634,5.1620746,1.7920505,1.0
4.782015,4.8831644,1.9066924,104.0
5.2148356,4.8037543,1.9228424,67.0
4.5720844,4.9034715,2.2357106,110.0
4.944265,4.7719665,2.244728,1.0
5.760279,4.664216,1.9514663,64.0
6.3139997,4.57685,1.9828427,158.0
5.5468693,4.702503,2.320316,49.0
6.070569,4.6224546,2.3622112,41.0
7.0212774,4.47611,2.0376546,112.0
7.7000527,4.347596,2.0699005,1.0
6.810823,4.541167,2.4504912,1.0
7.5336013,4.4548955,2.530019,1.0
6.3534904,5.8450217,1.425221,1.0
5.339579,5.7054443,1.7401059,80.0
6.5708003,5.3627205,1.3386917,71.0
7.0720835,5.178322,1.304679,47.0
6.6647396,5.0993624,1.6849487,36.0
7.7458735,5.1988864,1.7878335,1.0
4.7552385,4.917275,1.9083319,104.0
5.1647615,4.818071,1.9153903,71.0
4.525839,4.915333,2.2280104,60.0
4.8937626,4.783096,2.2352803,1.0
5.715956,4.6880245,1.9462895,67.0
6.252284,4.5924463,1.9723233,164.0
5.4524097,4.681304,2.2925818,23.0
6.005073,4.632632,2.3478234,24.0
6.9425664,4.4873533,2.0226817,111.0
7.584682,4.3457966,2.045823,18.0
6.7267547,4.546226,2.4301536,1.0
7.487332,4.491324,2.5238318,1.0
6.380266,5.9438233,1.4398873,1.0
5.3313456,5.7690325,1.7494065,65.0
6.573424,5.4341774,1.3463603,62.0
7.0505414,5.230875,1.3067925,25.0
6.717899,5.2069497,1.7070252,27.0
4.9841614,4.7026157,2.6354926,1.0
4.703056,4.924731,1.8995875,98.0
5.096446,4.8147907,1.9010184,63.0
4.4923253,4.940861,2.226727,103.0
4.8203135,4.771148,2.2151248,1.0
5.6715617,4.711461,1.9411128,35.0
6.179729,4.5993853,1.9582976,163.0
5.3698964,4.669126,2.2697778,1.0
5.9396906,4.64217,2.3334353,46.0
6.870476,4.5020566,2.009641,114.0
7.60102,4.4186893,2.0578618,59.0
6.603492,4.523272,2.3952892,1.0
7.371941,4.4856086,2.4940207,1.0
6.391672,6.0296907,1.4512203,1.0
5.2949924,5.8024163,1.7494065,60.0
6.58145,5.5109625,1.3553072,53.0
7.0191193,5.2762556,1.3070945,49.0
6.8978496,6.0205584,1.9239235,1.0
4.9457083,4.710677,2.626775,1.0
4.669253,4.9356265,1.8952154,96.0
5.0555134,4.8215094,1.8940985,53.0
4.4652023,4.9577417,2.224802,54.0
5.582844,4.6820874,1.9178171,1.0
6.1223164,4.6017923,1.9467764,160.0
5.276518,4.631416,2.2389617,44.0
5.881725,4.6418366,2.3190475,38.0
6.8039465,4.504273,1.996117,109.0
7.516283,4.4171476,2.0402668,71.0
6.549113,4.5313888,2.3830867,1.0
7.2885056,4.4822407,2.472647,52.0
6.3932424,6.0882335,1.4582201,1.0
5.292369,5.854858,1.7578214,65.0
6.531332,5.5214643,1.3501947,74.0
6.9910226,5.3068905,1.3064907,43.0
6.8650084,6.049108,1.9226687,1.0
4.893147,4.719735,2.6144252,1.0
4.630295,4.956408,1.8919362,98.0
5.005651,4.8344855,1.8866465,21.0
4.4377275,4.9899573,2.226727,94.0
4.683243,4.7390566,2.1754436,1.0
5.537158,4.7032704,1.9121226,31.0
6.0778465,4.628479,1.9417672,159.0
5.3579473,4.7633977,2.2870347,18.0
5.834521,4.664452,2.3118534,16.0
6.7336807,4.518711,1.9835591,110.0
7.4431953,4.437491,2.027765,80.0
6.4407454,4.516208,2.3534517,1.0
7.2014856,4.4915233,2.4523978,80.0
6.3833165,6.1555953,1.4648865,1.0
5.272312,5.9069543,1.763579,49.0
5.5672264,5.6101217,1.7146944,1.0
6.4935174,5.559818,1.3495556,63.0
6.8900304,5.299041,1.2935075,6.0
5.9351163,4.769349,1.5255963,1.0
4.8540373,4.7413,2.60934,1.0
6.7742352,4.779252,1.585029,1.0
4.601662,4.988239,1.8930292,79.0
4.9558253,4.847026,1.8791944,18.0
4.3913403,5.0006156,2.2190268,74.0
4.6786427,4.7941236,2.1874108,1.0
5.4695125,4.7051053,1.8986628,27.0
6.0071683,4.634752,1.9282423,159.0
5.2573934,4.733114,2.2562187,1.0
5.7724047,4.6746907,2.2986646,1.0
6.658698,4.5291586,1.9695523,105.0
7.370151,4.4570913,2.0152633,66.0
6.3888855,4.539899,2.3447356,1.0
7.1276355,4.508066,2.4366486,94.0
5.235094,5.9399643,1.763579,54.0
6.488227,5.6264477,1.3559462,92.0
6.669109,5.1968503,1.2572756,1.0
5.9948807,4.879282,1.5492784,65.0
6.8333354,4.8858714,1.6064979,1.0
4.5689383,5.0156274,1.8924828,105.0
4.9184046,4.8713055,1.8765329,7.0
4.3734365,5.043893,2.2260854,86.0
4.5546107,4.726666,2.142691,1.0
5.429671,4.7304664,1.8950391,65.0
5.941239,4.643885,1.9162202,123.0
5.1742625,4.717188,2.2327986,1.0
5.7000422,4.675892,2.281279,12.0
6.5886374,4.54216,1.9569944,95.0
7.2838683,4.4678435,1.9990573,81.0
6.3183823,4.549649,2.3290467,1.0
7.0182657,4.5011516,2.408525,69.0
5.2487307,6.0317216,1.7812946,45.0
6.4823537,5.6932297,1.3623369,103.0
6.6301055,5.2337656,1.2560679,35.0
6.790087,6.2144895,1.9343809,1.0
4.548875,5.057143,1.8974015,88.0
4.8849697,4.89939,1.8754684,1.0
4.342886,5.0727153,2.226727,54.0
4.6088405,4.8429394,2.1830018,135.0
5.355047,4.7247396,1.8789909,81.0
5.88304,4.658364,1.9067028,88.0
5.158464,4.7625527,2.2389617,1.0
5.6690793,4.710398,2.2806795,26.0
6.5059724,4.5455365,1.9405726,118.0
7.1878166,4.4715457,1.9800731,75.0
6.2001777,4.5236,2.2953444,1.0
6.9318295,4.507635,2.388276,102.0
5.210729,6.064581,1.7812946,22.0
6.467064,5.752265,1.3668102,91.0
6.6373143,5.3073263,1.2639182,54.0
6.713689,6.222381,1.9235052,1.0
6.154658,5.138251,1.6082829,1.0
4.529743,5.100047,1.9028667,97.0
4.8540897,4.9299865,1.8754684,82.0
4.3426075,5.137612,2.243411,94.0
4.582233,4.87594,2.1848915,80.0
5.3482456,4.778953,1.8872738,60.0
5.837004,4.6819544,1.9011925,67.0
5.0826983,4.751856,2.2186232,45.0
5.550113,4.671228,2.24411,1.0
6.4488244,4.566064,1.9318787,76.0
7.1200256,4.4918,1.9689605,82.0
6.180848,4.569318,2.2988307,1.0
6.847196,4.514264,2.3685896,76.0
5.212775,6.144896,1.795467,19.0
6.470317,5.8285556,1.3754375,91.0
6.7654643,5.4791994,1.295621,29.0
6.65596,6.2470007,1.9180673,1.0
7.827924,5.8271666,1.8717921,1.0
4.5039306,5.1356587,1.9055992,95.0
4.8189745,4.956253,1.8738714,92.0
4.3150787,5.1706276,2.2459776,51.0
4.559279,4.912959,2.1886706,109.0
5.290967,4.7877574,1.8774378,78.0
5.736686,4.6613426,1.8776493,45.0
4.9618034,4.6970963,2.1779459,19.0
5.4755325,4.6677628,2.2255256,9.0
6.3633456,4.5656147,1.9144909,109.0
7.019435,4.49049,1.9485872,92.0
6.0939274,4.564312,2.2767498,1.0
6.759558,4.5178843,2.347778,100.0
5.197785,6.2059956,1.803882,9.0
6.4597654,5.8931065,1.381189,85.0
6.8212614,5.595371,1.3134351,1.0
6.5670667,6.2414293,1.903427,1.0
6.939694,5.9394784,1.837076,1.0
6.691264,5.0265827,1.600364,1.0
4.488481,5.167019,1.9094249,95.0
4.7767844,4.9595227,1.8664193,63.0
4.28826,5.1879773,2.2446945,86.0
4.5257654,4.923241,2.1836317,89.0
5.249853,4.795646,1.870708,70.0
5.768668,4.7323875,1.8956825,100.0
5.43318,4.6761456,2.2171326,9.0
6.318231,4.578407,1.907246,89.0
6.9523716,4.494056,1.9356225,80.0
6.0662584,4.588344,2.2744257,1.0
6.687207,4.5154467,2.329779,94.0
5.2206235,6.293597,1.8224833,9.0
5.540263,6.000799,1.7730327,1.0
6.465254,5.954321,1.3885382,78.0
6.8314323,5.6576343,1.3206815,1.0
6.508009,6.243806,1.8946428,1.0
6.9264817,5.984892,1.8410898,1.0
6.576918,5.0053177,1.5800451,1.0
5.1261177,4.7272134,2.6175954,40.0
4.463416,5.2039027,1.9127041,95.0
4.7641873,5.0089397,1.8738714,75.0
4.2734766,5.236887,2.2543197,54.0
4.484502,4.940367,2.178593,105.0
5.196988,4.8074827,1.8624251,80.0
5.692549,4.7303047,1.8801539,146.0
4.911221,4.7526965,2.1785622,42.0
5.3575516,4.6702023,2.1979487,8.0
6.2487435,4.5880437,1.8946881,131.0
6.8750987,4.505776,1.9217316,88.0
6.017603,4.6111836,2.2668717,1.0
6.6063476,4.5217338,2.3112175,94.0
5.235184,6.392802,1.8419704,22.0
5.423298,5.949104,1.7471045,1.0
6.506953,6.0690713,1.4061123,121.0
6.8261023,5.725788,1.3267201,1.0
6.456053,6.2722793,1.8908781,1.0
6.9049916,6.042451,1.8455052,1.0
6.53603,5.0393286,1.5777448,15.0
5.0636168,4.7286134,2.6005242,31.0
4.4454985,5.2495065,1.9192624,97.0
4.741889,5.0485845,1.8775975,64.0
4.2606153,5.288772,2.2652285,79.0
4.457186,4.9726753,2.1804824,92.0
5.154025,4.8281183,1.8577659,82.0
5.6345043,4.7423663,1.8706365,95.0
4.8677125,4.7701035,2.172399,36.0
5.3395743,4.713842,2.2027447,4.0
6.205806,4.616752,1.8903412,91.0
6.802825,4.5199213,1.9092299,92.0
5.9236445,4.598266,2.2418854,1.0
6.5509505,4.5446234,2.3016553,91.0
5.426426,6.0279512,1.7605007,55.0
6.8201847,5.794097,1.3327588,1.0
6.3733926,6.2701025,1.877911,1.0
6.1290526,4.7857566,1.4845852,1.0
5.0161996,4.7435875,2.5912771,61.0
4.414887,5.2802935,1.9203554,106.0
4.6942925,5.061363,1.87121,66.0
4.276635,5.377854,2.2921793,58.0
4.4144926,4.987824,2.1748137,112.0
5.101224,4.8390694,1.849483,74.0
5.5617633,4.7413664,1.8561097,167.0
4.7810903,4.744136,2.1465135,8.0
5.386858,4.815752,2.2351177,1.0
6.1302724,4.6204853,1.8758514,130.0
6.7274137,4.531172,1.895802,78.0
5.8601108,4.608093,2.2285206,1.0
6.471935,4.5504985,2.2836564,86.0
5.406658,6.0823145,1.7665507,55.0
6.8692365,5.910142,1.3499689,1.0
6.012828,4.7557526,1.4631163,1.0
6.8572836,4.8605475,1.5301526,1.0
4.9647565,4.7542624,2.5798962,78.0
4.3974876,5.3272634,1.9274602,93.0
4.674155,5.103519,1.8760006,63.0
4.231108,5.3896837,2.2857625,83.0
4.3968544,5.0311427,2.1817422,97.0
5.070719,4.8710256,1.849483,76.0
5.528925,4.7736955,1.8551079,153.0
4.7471733,4.7700243,2.1446645,1.0
6.088805,4.6494555,1.8719873,87.0
6.661789,4.5482125,1.8851525,76.0
5.8116245,4.629268,2.2209668,1.0
6.396238,4.5577807,2.266782,88.0
5.399339,6.1513104,1.7769219,39.0
6.818525,5.941526,1.3472515,1.0
6.121978,4.8897285,1.4960864,38.0
6.8695364,4.9179034,1.538203,1.0
4.9181757,4.754149,2.567093,83.0
4.377188,5.353899,1.9296464,71.0
4.655252,5.1311846,1.8781298,67.0
4.3668633,5.0446496,2.178593,93.0
5.022815,4.870587,1.8401648,74.0
5.4800315,4.776869,1.8460913,155.0
4.7286377,4.7964187,2.1465135,1.0
6.037686,4.655502,1.8628105,62.0
6.5728946,4.5333304,1.8657053,119.0
5.7793293,4.648179,2.2168992,1.0
6.332551,4.55771,2.2515955,86.0
5.404985,6.2163887,1.7885896,16.0
6.8512554,4.970175,1.5411304,1.0
4.86157,4.7587256,2.5528667,56.0
4.3591137,5.4008036,1.9367511,84.0
4.631954,5.170358,1.8818558,53.0
4.380668,5.710004,2.40255,28.0
4.3499336,5.089258,2.1861513,107.0
4.9687476,4.878972,1.8313642,71.0
5.432448,4.795878,1.8400803,161.0
4.6388674,4.7645063,2.118779,1.0
5.99,4.67896,1.8570145,32.0
6.517123,4.5556583,1.8578337,51.0
5.71004,4.6516542,2.2012103,1.0
6.2680554,4.57149,2.2386587,91.0
5.401538,6.291624,1.8006893,1.0
6.7143254,5.9820313,1.3394012,1.0
4.7852473,4.7429824,2.527971,55.0
4.340622,5.447692,1.9438559,86.0
4.607066,5.2080007,1.8850496,64.0
4.317362,5.7010946,2.3871496,6.0
4.3191,5.1179357,2.186781,89.0
4.9366283,4.9087286,1.8308465,63.0
5.3790545,4.8093324,1.8320655,153.0
4.624614,4.810066,2.126175,139.0
5.927071,4.689919,1.8463887,52.0
6.4899616,4.597637,1.8582968,117.0
5.630628,4.645889,2.1814537,1.0
6.1943593,4.577821,2.2223468,87.0
5.398624,6.368547,1.8132213,37.0
6.740867,5.0207543,1.5301526,1.0
4.738253,4.7556887,2.518724,58.0
4.3228974,5.496076,1.9515072,88.0
4.580615,5.244086,1.887711,76.0
4.3356843,5.801092,2.4179506,1.0
4.2978334,5.1580644,2.1924498,103.0
4.896188,4.9300265,1.8272227,50.0
5.331463,4.8274884,1.8260545,149.0
4.6034408,4.848715,2.130489,60.0
5.843087,4.683223,1.8290008,42.0
6.4134426,4.604405,1.844406,58.0
5.5383306,4.6282296,2.1564674,1.0
6.116215,4.5799685,2.2043478,77.0
6.938652,5.8377523,1.7368448,1.0
4.6925955,4.769329,2.5101883,32.0
5.1555276,4.7042384,2.5560136,15.0
4.3094373,5.550544,1.9613446,82.0
4.5501018,5.2756753,1.8887756,65.0
4.3159523,5.851133,2.4275758,33.0
4.2834954,5.2069006,2.2018976,101.0
4.8570232,4.9523935,1.8241166,27.0
5.282426,4.843932,1.8195425,137.0
4.584559,4.8900714,2.136036,100.0
5.772954,4.686704,1.81596,123.0
6.349707,4.6195183,1.8342193,86.0
5.5499444,4.6976695,2.1727376,1.0
6.0214367,4.5686007,2.1801615,58.0
6.951045,5.923357,1.7494961,1.0
4.669029,4.8054423,2.5137448,8.0
5.1106806,4.7225857,2.5483546,1.0
4.533169,5.323194,1.8956954,77.0
4.267998,5.8627896,2.421159,1.0
4.273517,5.261639,2.213865,97.0
4.83921,4.9967294,1.8292935,43.0
5.2390833,4.865205,1.8150343,127.0
4.549878,4.91458,2.134187,82.0
5.746384,4.7253575,1.816926,152.0
6.270345,4.6225095,1.8194025,48.0
5.5493073,4.75744,2.184359,1.0
5.9712653,4.590026,2.172287,51.0
5.6295033,6.1031833,1.7415463,1.0
6.931488,5.982344,1.7540965,1.0
6.2650323,4.8540535,1.4408658,1.0
4.687765,4.886087,2.5407746,11.0
5.0685525,4.74311,2.5420883,40.0
4.319127,5.7103586,1.9990548,14.0
4.502123,5.354515,1.89676,64.0
4.264104,5.9357357,2.4404097,55.0
4.25706,5.3090696,2.222683,93.0
4.805057,5.024236,1.828258,13.0
5.194268,4.8848023,1.810025,108.0
4.5137916,4.9374375,2.1317217,90.0
5.7061653,4.7526464,1.813545,45.0
5.464527,4.7443833,2.1622782,1.0
5.9225807,4.612177,2.1649747,40.0
5.7197604,6.280448,1.7825394,1.0
6.9623027,6.0666533,1.7694315,1.0
6.2622614,4.8992214,1.4456228,26.0
5.0557117,4.775927,2.546962,32.0
4.2979145,5.738364,2.0017874,1.0
4.4978867,5.4007945,1.905809,66.0
4.272175,6.006804,2.4615855,35.0
4.2473984,5.34835,2.2308712,91.0
4.8064933,5.073543,1.838094,37.0
5.161335,4.8999214,1.8065186,63.0
4.49302,4.961482,2.1329544,89.0
5.6259084,4.73061,1.7947083,176.0
5.417704,4.7485685,2.1524,1.0
5.897757,4.6376705,2.1638498,12.0
5.696634,6.314608,1.7846309,1.0
6.9240475,6.1102786,1.7694315,33.0
4.9794116,4.763668,2.5232894,31.0
4.473694,5.4408336,1.9100673,70.0
4.2289925,5.3943067,2.2390594,83.0
4.769258,5.097985,1.8360233,25.0
5.1136503,4.916199,1.8005075,112.0
4.449118,4.975393,2.1267912,94.0
4.7530084,4.7909083,2.085243,1.0
5.6093407,4.777227,1.7990552,129.0
5.344933,4.744281,2.1349678,1.0
5.860979,4.668677,2.1610374,40.0
5.6296,6.3195434,1.7758466,25.0
6.881137,6.149729,1.7682813,1.0
6.1909842,4.970165,1.4434273,1.0
4.995298,4.8390803,2.546962,1.0
4.3756857,5.9990582,2.074475,1.0
4.4442973,5.4748077,1.9121965,71.0
4.224171,5.458215,2.254806,85.0
4.7292924,5.1193132,1.8329172,50.0
5.0743127,4.9401517,1.797502,75.0
4.407729,4.9918084,2.1218605,82.0
4.698704,4.796217,2.074452,1.0
5.5484257,4.785671,1.7889123,122.0
5.8991747,4.5683365,1.7411507,1.0
5.329214,4.790604,2.1407785,1.0
5.7177625,4.614121,2.1182895,18.0
6.880125,6.227173,1.778249,11.0
4.907078,4.814082,2.517023,1.0
4.349103,6.042078,2.07994,155.0
4.43038,5.528139,1.9212455,74.0
4.2302794,5.5373254,2.276851,91.0
4.712607,5.1660986,1.8391294,45.0
5.0473213,4.976003,1.7990048,97.0
4.383754,5.028032,2.1255586,82.0
4.6711373,4.8283796,2.075651,51.0
5.4949174,4.7999444,1.7811844,120.0
5.858082,4.595738,1.7374465,1.0
5.3554683,4.875686,2.1640215,1.0
5.697594,4.657219,2.1216645,50.0
6.012505,6.238357,1.7407421,1.0
6.915857,5.6931,1.6329787,1.0
4.8006954,4.7697244,2.4773364,1.0
4.3310304,6.097572,2.0897777,46.0
4.4063625,5.569443,1.9260361,76.0
4.1850786,5.5501847,2.2711823,177.0
4.677477,5.1927285,1.838094,34.0
5.0145826,5.006254,1.7985039,97.0
4.3570232,5.0612593,2.1280239,74.0
4.6526074,4.8700147,2.0810466,40.0
5.4515996,4.822765,1.7768375,113.0
5.842829,4.6433115,1.7416137,1.0
5.3541985,4.936563,2.176224,1.0
5.6430306,4.672188,2.1121023,118.0
5.9406915,6.2420254,1.7311087,1.0
4.7255583,4.7547164,2.4536636,1.0
4.3839254,6.255676,2.135139,34.0
4.398675,5.6318865,1.9382789,74.0
4.2536597,5.714642,2.3284996,218.0
4.665233,5.2451706,1.846377,51.0
4.993953,5.048644,1.8025112,97.0
4.3398705,5.105977,2.1354196,89.0
4.615349,4.892232,2.078049,15.0
5.4038873,4.841334,1.7710415,105.0
5.8196154,4.684795,1.7434659,11.0
5.1012483,4.7618265,2.0838332,1.0
5.554602,4.658385,2.0896034,64.0
5.891938,6.2692566,1.7282989,1.0
6.9462805,5.8470945,1.6556664,1.0
4.6965027,4.770272,2.4501824,1.0
4.383925,5.667768,1.9436018,76.0
4.2470336,5.76207,2.339837,182.0
4.639191,5.2656436,1.8458593,45.0
4.974184,5.0762587,1.804014,102.0
4.318203,5.1292896,2.1366522,80.0
4.5909367,4.9125366,2.0774496,37.0
5.3652196,4.8523808,1.7657286,63.0
5.8095794,4.7219515,1.7471701,17.0
5.0412507,4.750267,2.068144,1.0
5.517906,4.6721473,2.083979,91.0
5.8609915,6.295521,1.7278975,1.0
4.678237,4.8117495,2.4564486,1.0
5.1882977,4.6943803,2.4846396,39.0
4.381106,5.738013,1.958506,75.0
4.6072783,5.2961493,1.846377,12.0
4.955695,5.121288,1.8090231,109.0
4.300431,5.173923,2.1440482,69.0
4.5612783,4.942683,2.078049,14.0
5.318923,4.8715315,1.7604157,108.0
4.9878335,4.75932,2.058266,1.0
5.842591,6.3552504,1.7343198,1.0
4.677871,4.872064,2.4724627,1.0
5.1241093,4.6950054,2.4676952,41.0
4.3717527,5.800762,1.9707488,77.0
4.3376584,6.0412016,2.4324265,77.0
4.5927286,5.347029,1.8541422,39.0
4.9274445,5.1565123,1.8105259,132.0
4.281065,5.2170606,2.1508276,73.0
4.5198174,4.959994,2.073253,1.0
5.2910476,4.9075027,1.7613816,83.0
5.647942,4.7101264,1.7156842,1.0
4.931758,4.765222,2.0472255,1.0
5.394847,4.6859202,2.05923,21.0
4.491876,4.7385592,2.3889117,1.0
5.102762,4.734812,2.471762,48.0
4.3710227,5.8759685,1.9872499,29.0
4.2952085,6.062153,2.429907,94.0
4.5515704,5.366919,1.8510361,10.0
4.9029455,5.195797,1.8135314,78.0
4.26252,5.26164,2.1582236,66.0
4.4911246,4.9911237,2.074452,1.0
5.26152,4.9419827,1.7618647,90.0
5.6852794,4.8018327,1.7365204,130.0
4.8976283,4.7920876,2.0454822,1.0
5.3335156,4.6919265,2.0468557,26.0
6.919564,6.1277356,1.6860385,1.0
4.5571446,4.867682,2.4404347,142.0
5.0496645,4.7448072,2.4602396,69.0
4.535063,5.4161973,1.8582836,35.0
4.864907,5.220849,1.8115277,101.0
4.2435827,5.306192,2.1656194,67.0
5.231767,4.976286,1.7623476,85.0
5.632767,4.8185487,1.729575,52.0
4.8457355,4.80115,2.036185,1.0
5.285253,4.708801,2.0395436,135.0
4.548178,4.919557,2.452271,68.0
5.078204,4.8323874,2.4893842,73.0
5.503206,4.7058144,2.4948344,16.0
4.4047084,6.078442,2.0378177,1.0
4.5132084,5.45951,1.8634604,16.0
4.839898,5.2598395,1.8145332,102.0
4.2336497,5.362688,2.1779459,73.0
5.203185,5.01176,1.7633135,92.0
5.5935364,4.846225,1.7267969,61.0
4.8020043,4.817907,2.0303743,1.0
5.2184176,4.7085943,2.0249193,56.0
4.5122404,4.927147,2.4453084,103.0
4.941707,4.7464366,2.4324508,80.0
5.433693,4.691113,2.4730616,82.0
4.3748875,6.0975676,2.0372853,1.0
4.499626,5.4956994,1.8686373,1.0
4.8229084,5.2911525,1.8175389,103.0
4.2188387,5.3961005,2.1834927,80.0
5.1864486,5.0430083,1.7657286,102.0
5.575041,4.8763604,1.7281859,56.0
4.819462,4.8814564,2.0478065,1.0
5.1534925,4.694483,2.0080452,78.0
6.0576444,6.1770144,1.6555697,1.0
4.4862404,4.960948,2.4480937,85.0
4.891613,4.757653,2.4222841,90.0
5.374189,4.6991477,2.4592059,120.0
4.4807386,5.5434394,1.8753672,1.0
4.801263,5.33427,1.8220471,106.0
4.227697,5.4783607,2.2062967,83.0
4.4159293,5.146097,2.0954344,1.0
5.161556,5.082324,1.7681435,114.0
4.74208,4.863544,2.027469,1.0
5.1154075,4.718987,2.0046701,86.0
6.006454,6.202234,1.6521193,1.0
4.4512224,4.9848537,2.4460049,100.0
4.8429103,4.769753,2.412795,53.0
4.4782367,5.612346,1.8893446,1.0
4.772814,5.370106,1.8240508,107.0
4.2242007,5.5457735,2.2229373,82.0
4.3884597,5.1795497,2.0978324,1.0
5.1281505,5.1132803,1.7676605,80.0
4.716721,4.8987737,2.0297933,1.0
5.0575304,4.7249126,1.9934208,63.0
5.9375925,6.208571,1.6436851,1.0
4.4185696,5.0113206,2.4453084,96.0
5.2498927,4.708508,2.428856,30.0
4.455987,5.657103,1.8950391,1.0
4.746666,5.4086986,1.8270563,106.0
4.2063565,5.595067,2.2321823,158.0
4.3472285,5.196802,2.093636,1.0
5.0959215,5.1454,1.7676605,87.0
4.6792755,4.9213586,2.026888,1.0
4.9969854,4.7276683,1.9810464,94.0
5.945519,6.2958155,1.6571032,1.0
4.3919373,5.0446253,2.4480937,91.0
4.7020764,4.748428,2.3714507,1.0
5.172562,4.698378,2.406423,16.0
4.4191732,5.6834607,1.8945214,1.0
4.722766,5.4500937,1.8310636,106.0
4.234361,5.7071366,2.2666962,222.0
4.3205876,5.2313514,2.0966334,1.0
5.066198,5.1800995,1.7686266,95.0
5.450737,5.014922,1.7281859,1.0
4.6495676,4.9520607,2.027469,1.0
4.9477253,4.7404404,1.9731718,80.0
4.365061,5.077793,2.4508786,79.0
4.653788,4.7589874,2.3619618,9.0
5.1526923,4.7397046,2.4110417,163.0
4.406813,5.741831,1.904875,11.0
4.6985326,5.491401,1.8350711,103.0
4.2387276,5.789009,2.2888837,217.0
4.305786,5.280522,2.1056259,1.0
5.0335507,5.211829,1.7686266,91.0
5.4091296,5.039814,1.7249447,1.0
4.5444365,4.9009643,1.9943476,1.0
4.9109354,4.7647724,1.9703594,92.0
4.353282,5.1125445,2.4578412,67.0
4.6234794,4.772732,2.3578951,8.0
4.3971763,5.7856536,1.9126402,47.0
4.6839066,5.526744,1.8395793,104.0
4.2592344,5.8752933,2.3153856,221.0
4.310935,5.3377743,2.1206133,23.0
5.016961,5.243928,1.7715245,90.0
5.382478,5.0625896,1.7240187,1.0
4.578063,4.984512,2.0199149,1.0
4.8678,4.7677784,1.9619224,65.0
6.2106986,6.123419,1.5890672,1.0
4.3525553,5.177014,2.4759438,50.0
4.623221,4.833052,2.373484,7.0
5.050616,4.7496552,2.3872893,69.0
4.39423,5.8580766,1.927653,51.0
4.654076,5.5619903,1.841583,100.0
4.2868633,5.3766623,2.1254094,50.0
4.9879003,5.27959,1.7729735,87.0
5.3788137,5.123069,1.7332792,1.0
4.504369,4.9662714,2.0007393,1.0
4.839114,4.799617,1.9624848,90.0
6.1497865,6.140145,1.5832123,1.0
4.5798836,4.848287,2.3667061,1.0
5.0001073,4.761825,2.3773925,111.0
4.381385,5.918243,1.9385244,29.0
4.637598,5.613462,1.8490968,102.0
4.294363,6.084096,2.3770177,119.0
4.2648416,5.4184494,2.1314044,43.0
4.958589,5.315094,1.7744225,84.0
5.3703885,5.179661,1.7411507,28.0
4.5366974,5.065947,2.0297933,1.0
4.79528,4.816366,1.9568602,86.0
6.108314,6.175874,1.5824804,1.0
4.51351,4.8383317,2.3477285,171.0
4.942832,4.767015,2.3641968,34.0
4.3815804,5.997234,1.9556079,55.0
4.610832,5.652969,1.8526033,101.0
4.2354126,5.451152,2.1338024,13.0
4.936895,5.3590245,1.7787694,90.0
5.346112,5.221435,1.7439289,40.0
4.5262556,5.1187873,2.0396714,1.0
4.7689724,4.8504944,1.9585476,95.0
6.0790296,6.2239556,1.585042,1.0
4.5211396,4.908231,2.3680618,104.0
4.881626,4.7677283,2.349022,38.0
4.3809547,6.0764585,1.9726913,26.0
4.5874085,5.696875,1.8576125,100.0
4.245373,5.535059,2.1565833,37.0
4.9148436,5.4028916,1.7831163,85.0
5.307651,5.249465,1.7420768,11.0
4.4952583,5.148571,2.0402524,1.0
4.734379,4.8762436,1.9568602,86.0
4.481378,4.92677,2.3633173,105.0
4.8125296,4.7599206,2.329888,24.0
4.564824,5.742222,1.8631226,101.0
4.225541,5.5813565,2.1643767,25.0
4.8937287,5.44814,1.7879463,82.0
5.2897263,5.2978144,1.7471701,36.0
4.444142,5.1549163,2.0315363,1.0
4.690323,4.8920803,1.9512354,90.0
4.4556007,4.94503,2.3619618,97.0
4.7458224,4.738657,2.308115,75.0
4.5617533,5.794029,1.873141,98.0
4.2325125,5.645383,2.1817622,51.0
4.8808613,5.485676,1.7927762,73.0
5.2605863,5.318544,1.745781,10.0
4.660588,4.9071903,1.948423,92.0
4.4182105,4.9658794,2.358573,117.0
4.545529,5.848511,1.8816566,96.0
4.2277207,5.7131886,2.1979487,38.0
4.853959,5.5250044,1.7956742,78.0
5.259784,5.384808,1.7568936,24.0
4.4461946,5.2738743,2.059428,1.0
4.615175,4.9210205,1.9422358,39.0
4.391872,4.9992113,2.361284,78.0
4.6475267,4.7588644,2.2889812,17.0
4.5299826,5.90455,1.8906733,95.0
4.2470965,5.814984,2.2273242,19.0
4.835629,5.5744977,1.8019532,71.0
5.2393928,5.431717,1.761524,43.0
4.349317,5.013881,2.355184,114.0
4.620164,4.7906814,2.2903008,1.0
4.5127373,5.9590826,1.8991889,94.0
4.2429576,5.8863506,2.2447095,165.0
4.808059,5.6136355,1.8048512,68.0
5.2024693,5.461719,1.760598,44.0
4.5451756,4.970152,1.938861,1.0
4.593891,4.8237057,2.2922802,1.0
4.506619,6.0291085,1.9127138,91.0
4.781437,5.6541324,1.8082321,65.0
5.177408,5.5041947,1.7638391,41.0
4.509986,4.9943504,1.9371736,1.0
4.3331833,5.124318,2.3816173,42.0
4.538837,4.826418,2.2797444,160.0
4.499798,6.099291,1.9262387,102.0
4.761934,5.7034745,1.8145111,61.0
5.156002,5.550836,1.7684693,48.0
4.2359724,5.288121,2.0222392,1.0
4.4708266,5.0140166,1.9337988,1.0
4.321026,5.1591425,2.388395,60.0
4.570272,4.9056087,2.3074553,67.0
4.5363474,6.2093725,1.9547911,65.0
4.7374697,5.7288494,1.815477,68.0
5.1363935,5.582213,1.7707845,36.0
4.27025,5.3831644,2.051293,1.0
4.4688225,5.0594187,1.9433608,1.0
4.304056,5.2050886,2.3972063,61.0
4.5149918,4.907901,2.2949195,158.0
4.7380795,5.8037047,1.8299669,57.0
5.1130285,5.627304,1.7749518,11.0
4.2504478,5.428011,2.058266,1.0
4.4445405,5.0960526,1.9467356,1.0
4.280751,5.243718,2.4026284,85.0
4.509541,4.964045,2.308115,69.0
4.712445,5.84699,1.8343138,77.0
5.0840864,5.6665425,1.7772669,43.0
4.2827153,5.5411115,2.091387,1.0
4.417461,5.12968,1.9489856,1.0
4.2606597,5.286666,2.410084,113.0
4.4428425,4.9530363,2.2896411,158.0
4.687657,5.8917036,1.8391438,88.0
5.043206,5.692563,1.7754148,40.0
4.253597,5.575536,2.0942924,1.0
4.3976192,5.171919,1.9546102,1.0
4.2285256,5.314808,2.4107618,129.0
4.444294,5.017501,2.3067956,71.0
4.6744394,5.951631,1.8488036,80.0
5.0433183,5.7650456,1.7883795,24.0
4.2322416,5.620537,2.1012654,1.0
4.3873286,5.22584,1.9647348,1.0
4.22052,5.3739033,2.425673,96.0
4.3765097,5.004222,2.2876618,161.0
4.666578,6.019309,1.8608785,71.0
5.0146503,5.805434,1.7911577,40.0
4.218448,5.676264,2.1123059,1.0
4.38145,5.285731,1.9771092,1.0
4.2124114,5.4160633,2.4358397,88.0
4.3900967,5.0674877,2.3074553,51.0
4.66525,6.076712,1.8719873,61.0
4.997388,5.840801,1.7948619,20.0
4.2142496,5.726972,2.1239274,1.0
4.2794914,5.2130938,1.9416734,94.0
4.333538,5.066351,2.2942595,56.0
4.6666913,6.1586027,1.8884093,39.0
4.983262,5.8987784,1.8031964,12.0
4.227467,5.821612,2.1494946,1.0
4.329131,5.341024,1.9799215,73.0
4.33463,5.1323247,2.3120737,44.0
4.652228,6.220505,1.8985521,9.0
4.963603,5.9508443,1.8096789,35.0
4.2452116,5.9244347,2.1779673,1.0
4.313541,5.3905444,1.9883586,73.0
4.321714,5.1826005,2.3226304,57.0
4.6509523,6.301242,1.9144909,13.0
4.9273562,5.9834127,1.8101419,1.0
4.2574267,6.021445,2.2041156,1.0
4.3083363,5.232916,2.3331869,52.0
4.680726,6.426213,1.9439536,1.0
4.938918,6.074512,1.828663,1.0
4.2816763,6.1377096,2.237237,1.0
4.2144136,5.185345,2.299538,91.0
4.9165373,6.1251082,1.8346823,8.0
4.2546525,5.527035,2.00917,1.0
4.2814355,5.3181167,2.3503413,131.0
4.942281,6.216604,1.8555186,1.0
4.265936,5.595758,2.0271692,1.0
4.2774143,5.381777,2.366836,64.0
4.927226,6.2780843,1.8647792,1.0
4.2723956,5.677541,2.047418,1.0
4.2294774,5.390763,2.3589187,129.0
4.929526,6.3626456,1.8809851,1.0
4.3078623,5.7995987,2.0822914,1.0
4.303449,5.555733,2.4202785,36.0
4.9072385,6.4166307,1.8879306,1.0
4.3225965,5.8960624,2.1076026,86.0
4.246586,5.554229,2.4077427,77.0
4.3035355,5.9479346,2.1166022,49.0
4.221879,5.5943346,2.4136808,132.0
4.2873507,6.004476,2.127289,80.0
4.227238,5.656422,2.4321547,88.0
4.3190684,6.109077,2.1576626,66.0
4.2208667,5.7222924,2.449309,64.0
