x,y,z,intensity
-1.640041,18.64669,1.5004611,1.0
-1.7490336,18.550732,1.4929605,1.0
-1.8722101,18.604788,1.4987167,26.0
-1.9754537,21.644398,2.5137532,1.0
-1.9653054,18.372784,1.4793545,1.0
-1.9020963,19.507685,2.253284,1.0
-1.9377263,19.513792,0.9068592,1.0
-2.0612235,18.189838,1.4643532,137.0
-1.8792301,18.109295,2.0831916,1.0
-1.9986354,18.923338,0.8758914,107.0
-2.1718876,18.146858,1.4617367,93.0
-2.4916954,20.415627,0.23950827,1.0
-1.9139043,17.638454,2.026494,128.0
-2.2539022,18.108747,1.4592946,120.0
-2.5711381,20.272745,0.23708667,1.0
-2.0349882,17.714823,2.0373974,34.0
-2.3668556,18.088303,1.4587713,99.0
-1.7519838,18.754091,1.4145834,1.0
-2.6947396,20.228445,0.236573,46.0
-2.8530858,23.135254,1.1040527,1.0
-2.4780023,18.055311,1.4572014,94.0
-1.8570619,18.61378,1.4039019,60.0
-2.8192782,20.193293,0.23624279,46.0
-2.239175,17.546083,2.019952,1.0
-1.9873575,21.484066,2.3727446,1.0
-2.9916675,23.065382,1.1012857,1.0
-2.0837924,22.829325,0.9547911,1.0
-2.587686,18.013752,1.4549338,75.0
-1.9535764,18.407475,1.3877975,65.0
-2.9475546,20.185072,0.23642623,41.0
-2.3278337,17.37231,2.000326,164.0
-1.9148232,19.351665,2.124847,1.0
-2.6990306,17.985317,1.4538871,98.0
-3.0825121,20.219519,0.2374169,45.0
-2.4377754,17.36324,2.0010529,37.0
-1.8913746,17.948233,1.9620484,1.0
-1.994258,19.150843,0.7798509,1.0
-2.811051,17.962101,1.4533639,96.0
-3.216124,20.241219,0.2381874,28.0
-2.517845,17.339771,1.9995991,77.0
-1.9473008,17.67646,1.9312924,173.0
-2.0679903,18.988293,0.77251804,147.0
-2.896942,17.95652,1.4540616,99.0
-2.069027,17.756632,1.9421611,56.0
-2.1858957,18.963015,0.77194667,79.0
-3.010372,17.941893,1.4544104,88.0
-1.7503698,18.708685,1.3056954,1.0
-2.3018913,18.923122,0.7707087,110.0
-3.1226997,17.920662,1.454236,61.0
-1.9516418,19.526642,1.369749,63.0
-2.2437744,17.352869,1.8979927,150.0
-1.977647,22.151236,2.362481,1.0
-1.8769022,18.108032,2.5192823,1.0
-3.77335,22.646812,1.085323,1.0
-2.4184785,18.89045,0.76985157,95.0
-1.9646804,18.492887,1.2908312,29.0
-1.9246606,20.14823,2.1376147,1.0
-2.53633,18.86894,0.7695659,95.0
-3.3635054,17.9642,1.4617367,9.0
-2.1714022,19.276682,1.3524331,19.0
-2.4705243,17.386251,1.9053926,30.0
-1.8840164,18.510618,1.953877,1.0
-2.044023,17.570024,2.4438517,1.0
-3.7738664,21.025276,1.0001882,1.0
-2.6534538,18.84274,0.7690897,97.0
-3.4751673,17.936844,1.4612134,1.0
-1.9903059,19.0934,0.6879086,1.0
-2.556438,17.401937,1.9086301,42.0
-1.8861359,17.711113,1.8644669,47.0
-2.1203113,17.50716,2.4360485,1.0
-3.6042964,19.558031,0.92165136,1.0
-2.7459335,18.85573,0.77032775,105.0
-3.584246,18.043356,1.4722028,1.0
-2.0811336,19.091753,0.68825245,87.0
-2.6690135,17.407137,1.9111739,18.0
-2.2231982,17.438532,2.4279563,1.0
-3.5814843,18.775938,0.8804674,1.0
-2.8643527,18.838104,0.77032775,101.0
-3.7015705,18.039991,1.473947,87.0
-2.19504,19.026697,0.6860174,75.0
-2.1026073,17.636683,1.8588789,31.0
-2.3303392,17.406569,2.4253552,1.0
-2.0721345,21.627403,2.9236023,1.0
-3.6954994,18.733475,0.87940323,1.0
-2.9857647,18.83947,0.77128005,61.0
-2.3116212,18.988731,0.6849858,86.0
-2.6529603,19.423649,1.3682166,1.0
-1.930213,19.60941,1.2535638,1.0
-2.197384,17.496935,1.8445733,1.0
-2.4352262,17.360231,2.420731,1.0
-1.887516,18.4476,2.4749556,1.0
-3.1073067,18.840052,0.77223235,32.0
-3.2654583,18.151693,1.3822103,1.0
-2.4280682,18.952032,0.68404025,82.0
-1.9510736,18.610657,1.1835297,143.0
-2.3030794,17.451262,1.8409969,164.0
-1.9136438,20.294912,2.0143514,1.0
-1.9366723,17.81512,2.387013,1.0
-2.5487094,18.948284,0.684556,86.0
-2.039917,21.096888,0.63791794,1.0
-1.849931,18.660542,1.8418899,1.0
-1.9878838,17.514528,2.3456938,1.0
-3.4618666,18.099026,1.3808956,1.0
-2.638528,18.94002,0.68472797,79.0
-1.95887,19.291292,0.57185334,1.0
-2.8204756,18.295076,1.284242,1.0
-2.500786,17.466192,1.8456908,43.0
-1.8944534,17.952229,1.7679478,1.0
-2.0918217,17.45056,2.3384352,1.0
-3.6078236,18.241203,1.3946993,1.0
-2.7580593,18.927021,0.68489987,80.0
-2.0681517,19.16731,0.5677563,158.0
-2.3662186,19.348555,1.238627,1.0
-2.610183,17.44817,1.8454673,36.0
-1.9713087,17.615767,1.7334975,172.0
-2.1982296,17.411526,2.3348057,1.0
-3.7259364,18.235754,1.3961784,60.0
-2.8766234,18.907343,0.6848139,77.0
-2.1952858,19.213518,0.5699511,102.0
-3.2773669,19.609177,1.3895167,1.0
-2.499864,19.428297,1.2453908,1.0
-1.8997105,18.094458,2.744596,1.0
-2.7194524,17.429462,1.8452438,14.0
-2.0881984,17.65637,1.7391692,85.0
-2.3037133,17.367918,2.330618,39.0
-2.0785067,21.701788,2.810989,1.0
-2.9978845,18.904682,0.68550164,82.0
-2.3114557,19.16164,0.5685611,124.0
-3.4015386,19.594091,1.3899764,1.0
-1.9217875,19.617554,1.1486857,1.0
-2.0081651,18.035002,2.7373495,1.0
-2.189101,17.56197,1.7305566,132.0
-2.4100883,17.33348,2.327826,58.0
-1.8716356,18.358448,2.3580112,1.0
-3.1192257,18.901241,0.68618935,87.0
-2.432055,19.148722,0.5686342,96.0
-3.5299153,19.601765,1.392275,1.0
-1.9507047,18.70996,1.0899254,158.0
-2.1397564,18.179129,2.7615042,1.0
-2.2981215,17.538006,1.7295064,80.0
-1.9004474,20.19899,1.9040554,1.0
-3.242341,18.906868,0.6873069,77.0
-2.549175,19.109285,0.5677563,131.0
-2.9024181,19.628408,1.2632868,1.0
-2.3778217,17.505299,1.7271956,135.0
-1.845936,18.69088,1.7523937,1.0
-1.9802907,17.521536,2.2469795,1.0
-3.3369868,18.922857,0.68868226,82.0
-2.642455,19.120823,0.5686342,93.0
-2.9984717,19.638184,1.2649778,44.0
-1.9939046,19.826359,0.49511933,1.0
-2.4891522,17.49986,1.728246,85.0
-1.8946149,18.031841,1.6868808,1.0
-2.0865464,17.477264,2.2426884,1.0
-3.4623222,18.93689,0.69022965,78.0
-2.7597022,19.084059,0.5679026,128.0
-2.0804622,19.461662,0.48387888,1.0
-2.3537488,19.325167,1.1327904,22.0
-2.5949945,17.456327,1.7253051,144.0
-1.9822766,17.792175,1.663841,162.0
-2.190577,17.418587,2.23652,1.0
-3.5917032,18.969723,0.6926366,68.0
-2.8825195,19.086107,0.5686342,100.0
-3.7751143,18.464252,1.309986,1.0
-3.247276,19.612734,1.2659643,1.0
-2.1890795,19.329042,0.48006856,112.0
-2.637305,20.564865,1.2153937,7.0
-2.0522838,22.658663,1.2173762,1.0
-2.707952,17.461302,1.7276157,88.0
-2.0926182,17.767511,1.662639,87.0
-2.2955244,17.371082,2.2319608,1.0
-2.0427797,21.590046,2.6419845,1.0
-3.003001,19.07157,0.56878054,130.0
-3.921262,18.582571,1.3211725,1.0
-3.3748126,19.617508,1.2677962,1.0
-2.308328,19.297045,0.47949702,89.0
-2.7627096,20.520203,1.2135696,1.0
-1.9047813,19.62658,1.036701,1.0
-2.8172956,17.44198,1.7274057,58.0
-2.1970375,17.696753,1.656829,115.0
-2.4103837,17.397535,2.2375927,1.0
-1.8812816,18.606052,2.2591329,1.0
-3.1253407,19.068106,0.56936586,96.0
-3.4987028,19.599844,1.268078,26.0
-2.425749,19.252415,0.47854444,87.0
-3.219954,22.814264,1.3660076,1.0
-1.9520315,18.871428,0.992216,1.0
-2.9251943,17.414125,1.7263554,117.0
-2.305587,17.66287,1.6548256,92.0
-1.9239118,20.743528,1.7984335,1.0
-1.9033129,17.702236,2.14415,1.0
-3.248756,19.069769,0.57017064,123.0
-2.5448158,19.222923,0.4780999,91.0
-2.3866427,17.636036,1.6532228,115.0
-1.845822,18.91259,1.6282821,1.0
-1.9687444,17.531397,2.1232905,1.0
-3.346127,19.097567,0.57178015,89.0
-3.7006729,19.489616,1.263005,1.0
-2.6348257,19.206758,0.4779729,97.0
-2.0864859,20.816664,0.38491702,1.0
-2.4971237,17.618723,1.6530224,96.0
-1.895539,18.229073,1.5655168,1.0
-2.073302,17.471397,2.117185,40.0
-3.4703164,19.099768,0.5726581,115.0
-3.6337354,18.496758,1.1932527,1.0
-2.7565973,19.197737,0.4782269,104.0
-2.1647477,20.306063,0.37242615,1.0
-3.4603708,21.795458,1.3025569,1.0
-2.3369539,19.32847,1.021833,1.0
-2.6033673,17.573162,1.6500173,118.0
-1.9877679,18.012901,1.5464466,126.0
-2.1788907,17.424557,2.1128607,44.0
-3.6053255,19.158133,0.5756577,59.0
-2.877762,19.18399,0.47835392,96.0
-2.2293367,19.72975,0.35828647,1.0
-3.6005177,21.792973,1.3038598,37.0
-2.80013,22.021082,1.1844288,1.0
-2.715262,17.56629,1.651019,93.0
-2.0956476,17.954556,1.5421882,52.0
-2.2873037,17.402655,2.111843,60.0
-3.890709,18.568771,1.2018485,1.0
-3.0004184,19.179354,0.47879845,97.0
-2.3534925,19.717339,0.35833642,109.0
-3.045258,22.80856,1.2328389,32.0
-2.8271728,17.558704,1.6520207,86.0
-2.2009442,17.879755,1.5364485,77.0
-2.3909616,17.346664,2.1065009,127.0
-3.122483,19.169987,0.479116,97.0
-2.4654574,19.60693,0.35593817,40.0
-3.501834,19.667574,1.1660142,1.0
-3.187133,22.779089,1.2322441,53.0
-2.9357862,17.530783,1.651019,134.0
-2.3114674,17.851746,1.5351524,103.0
-2.4982204,17.319517,2.1049745,152.0
-3.2472348,19.175606,0.47994155,94.0
-2.5847042,19.561316,0.35518873,65.0
-3.0517118,17.545313,1.6544248,73.0
-2.4217255,17.823055,1.5338564,91.0
-3.3711357,19.17451,0.4805766,97.0
-2.7021134,19.505075,0.35418946,88.0
-3.7302525,19.525982,1.1596301,1.0
-2.8646963,18.730356,0.9907887,1.0
-3.1364727,17.542488,1.6556269,115.0
-2.506513,17.817362,1.5344119,98.0
-3.4718223,19.215446,0.48241827,94.0
-2.7923086,19.480247,0.35388967,87.0
-3.4303591,21.764008,1.1745565,1.0
-3.2499156,17.540041,1.65743,93.0
-2.6146743,17.775644,1.532005,95.0
-2.9137685,19.456387,0.35373977,88.0
-3.571216,21.76764,1.1761028,53.0
-3.3657138,17.548584,1.6604352,118.0
-2.7278094,17.76871,1.5329307,91.0
-3.0384102,19.4535,0.35413948,91.0
-3.4852514,17.573925,1.6652435,74.0
-2.8384619,17.74532,1.5323752,92.0
-3.1608982,19.435999,0.35418946,82.0
-3.4702916,19.595556,1.0475248,1.0
-3.6048384,17.596506,1.6698514,155.0
-2.952175,17.740889,1.5336713,94.0
-3.2879245,19.445332,0.3549389,82.0
-3.0380812,17.740522,1.5349673,93.0
-3.3846304,19.459175,0.35568836,82.0
-3.6792905,19.522856,1.0455028,1.0
-3.1487951,17.717161,1.534597,94.0
-3.5128288,19.47098,0.35653773,89.0
-3.635037,18.638933,0.9932865,1.0
-3.2657893,17.728369,1.5375594,99.0
-3.3841612,17.744675,1.5410773,84.0
-3.5005677,17.748465,1.5434842,90.0
-3.628227,17.806143,1.5510752,86.0
