x,y,z,intensity
8.929505,22.110426,1.6941545,42.0
9.75707,21.743015,1.5451144,78.0
10.84805,21.21136,0.6189548,131.0
11.449706,20.49475,0.4487704,79.0
10.273836,20.839031,1.3786457,88.0
5.425439,16.28498,-0.39258844,71.0
8.788211,23.38011,-0.6563604,50.0
5.329265,16.702007,0.1838114,74.0
8.698601,24.171415,0.18909131,41.0
8.652699,20.708656,-0.69346315,1.0
9.233609,22.485395,3.9000354,22.0
9.056289,19.60291,-0.8120372,62.0
11.460476,24.015972,4.0299234,1.0
8.989303,22.402096,0.07880345,1.0
8.648902,19.442877,-0.08901219,104.0
9.030466,20.002235,4.461774,40.0
6.194204,18.652176,2.259826,44.0
11.371676,23.120275,-0.22351885,38.0
9.642724,23.15374,2.682122,113.0
9.647258,20.91004,2.2935245,36.0
7.071951,17.684519,2.64211,74.0
10.858666,21.467077,2.2835097,102.0
10.03108,20.547598,2.9550083,50.0
8.023604,24.33458,1.2272851,50.0
7.6291947,20.487015,0.90412796,30.0
5.986414,19.030605,1.6082616,36.0
6.602547,18.555128,1.48541,59.0
8.494643,20.536543,0.818144,1.0
9.183675,20.040693,0.66901153,110.0
8.743461,22.047419,1.6843472,61.0
9.586373,21.727259,1.539196,101.0
11.435241,22.713417,0.6699496,61.0
11.335194,20.592546,0.44951987,104.0
10.441864,21.5211,1.423465,66.0
10.951832,20.577492,1.2506804,41.0
5.2216754,16.006832,-0.38772145,126.0
8.619644,23.376724,-0.65507364,86.0
5.20819,16.683605,0.18282074,124.0
8.958655,25.390764,0.20482084,49.0
8.45878,20.607187,-0.6893057,1.0
8.883222,19.550274,-0.8082928,85.0
8.797894,22.329704,0.07756487,1.0
8.549056,19.548122,-0.088883676,96.0
8.949223,20.158823,4.484252,40.0
6.1276736,18.847483,2.2799366,100.0
6.8106184,18.712128,2.1791902,42.0
11.187905,23.11203,-0.22322623,103.0
8.769277,21.430819,2.465526,39.0
9.507452,20.952137,2.2914238,101.0
6.950599,17.702805,2.6380641,37.0
10.704089,21.495674,2.279102,77.0
11.486639,23.916584,3.4511647,26.0
5.010906,15.500659,0.7299917,131.0
7.492076,20.512035,0.9029852,82.0
5.885411,19.1288,1.6138434,57.0
8.279141,20.376543,0.8082582,27.0
9.071564,20.128965,0.67025524,68.0
9.589387,24.63743,1.8933643,69.0
9.4441,21.774256,1.5382096,73.0
10.942238,22.077057,0.644865,62.0
11.299139,20.835522,0.45441628,52.0
10.193133,21.348454,1.4062668,146.0
10.812111,20.626457,1.249372,63.0
5.1100926,16.00502,-0.38718727,79.0
8.419438,23.283792,-0.65183604,118.0
8.71773,25.212248,0.20166475,58.0
8.166529,20.255527,-0.67851615,1.0
7.854927,19.826979,3.4175467,1.0
8.767565,19.622122,-0.80885446,42.0
8.684052,22.453579,0.07822904,1.0
8.422897,19.594105,-0.088902034,68.0
8.883645,20.354664,4.5155606,55.0
6.0351715,18.8648,2.278483,41.0
6.725727,18.75336,2.1803465,51.0
9.416194,19.680971,-0.21039148,51.0
7.207181,17.843676,2.0256286,159.0
9.412686,21.00578,2.2924743,72.0
6.926958,17.890448,2.6623406,69.0
9.12601,21.163593,3.1098173,1.0
10.567591,21.47443,2.2710884,31.0
11.388227,24.000898,3.455724,1.0
12.33163,23.649687,3.2812579,1.0
4.99931,15.718305,0.7408464,60.0
7.437386,20.663614,0.90888953,89.0
5.8072777,19.19638,1.6175065,44.0
5.9974008,17.463896,1.3840178,1.0
8.211954,20.487692,0.81161076,28.0
9.0702505,20.381395,0.6786688,71.0
6.6065216,17.196064,1.2773463,62.0
10.242255,23.917686,1.6995558,67.0
11.12863,22.722837,0.6658852,59.0
11.191365,20.870924,0.45391664,79.0
10.200352,21.625582,1.4228135,51.0
10.737794,20.721474,1.2523457,88.0
5.0531197,16.08809,-0.38810724,65.0
7.9773407,22.392988,-0.63133126,53.0
5.978434,19.931784,0.24394788,91.0
8.58461,25.211412,0.2011048,59.0
9.240844,23.243286,-0.7570621,1.0
8.312604,21.278429,3.6632645,47.0
8.6961775,22.804548,0.08120879,1.0
7.806225,21.248266,4.8072405,44.0
8.310113,19.58573,-0.08902137,138.0
8.865318,20.576172,4.5556993,23.0
5.977403,19.097557,2.3034394,133.0
6.424063,18.274426,2.1160595,87.0
9.23029,19.607592,-0.20990601,144.0
12.202921,23.572134,-0.34918538,1.0
10.431143,23.669899,2.593284,31.0
7.105322,18.701658,2.7822783,48.0
9.020732,21.286135,3.1198678,1.0
10.352796,21.375568,2.2526565,124.0
11.652984,21.911407,2.1689155,1.0
9.617649,20.595682,2.9367712,45.0
12.152845,23.66849,3.2728631,1.0
4.895132,15.732237,0.7398886,66.0
7.2354283,20.506542,0.8986045,48.0
5.6634674,19.15413,1.6103548,60.0
7.5154057,22.322573,1.8035544,59.0
9.812247,22.422075,0.75797564,101.0
6.4429364,17.089766,1.2652404,140.0
10.503432,24.957674,1.774381,53.0
10.730025,22.26089,0.6471512,107.0
11.138572,21.089268,0.45811358,78.0
10.087751,21.739954,1.4264616,35.0
10.618294,20.809862,1.253773,85.0
4.921519,16.020082,-0.38656405,109.0
5.9102798,16.941397,-0.51033634,79.0
5.5799623,16.752779,0.08687489,120.0
9.091719,23.293436,-0.7568641,1.0
7.638563,19.91768,3.4185052,39.0
9.538692,25.500635,0.106518745,1.0
8.763422,20.696394,4.5701494,1.0
6.4110103,18.60921,2.1523654,70.0
9.189946,19.844946,-0.21056437,60.0
10.212693,20.613209,4.458794,1.0
11.760764,23.073046,-0.34404218,64.0
7.2537627,19.46199,2.8938348,15.0
10.991694,23.06656,2.4339693,36.0
11.464181,21.88721,2.1587322,1.0
9.485577,20.6503,2.9359665,50.0
12.036162,23.808088,3.282021,59.0
4.826296,15.862075,0.74542236,61.0
8.363971,24.177355,1.0815442,67.0
5.5678005,19.275497,1.6182042,115.0
6.283703,19.068888,1.5169615,88.0
8.091057,20.945398,0.8280299,1.0
9.621322,22.367657,0.7533665,64.0
6.350604,17.171074,1.2686117,42.0
9.130627,22.088999,1.5500463,55.0
10.829388,22.833784,0.66493267,19.0
10.785898,20.736868,0.44622228,115.0
9.910429,21.71391,1.4200774,103.0
10.53671,20.974245,1.2603148,42.0
4.810453,16.016201,-0.38602987,47.0
5.4740667,16.017395,-0.48925042,43.0
7.8765564,27.53951,0.38770306,1.0
5.4764585,16.79321,0.08695124,54.0
8.666044,20.329489,-0.8278261,1.0
8.712796,23.742119,0.08914284,1.0
8.021555,19.586853,-0.0892738,115.0
8.57815,20.619041,4.5408483,51.0
5.659809,18.91242,2.270487,83.0
6.277392,18.6002,2.146353,85.0
9.033638,19.833105,-0.21031168,118.0
9.768418,19.472858,-0.31130406,76.0
6.9799457,18.266085,2.0604985,99.0
10.05014,23.605196,2.5710173,1.0
7.1950383,19.681963,2.9210014,1.0
7.678061,18.777557,2.7206364,1.0
9.839662,20.983074,2.1947567,62.0
11.256944,21.824358,2.144661,44.0
9.3817,20.767313,2.9445488,44.0
11.7482395,23.606298,3.2423368,61.0
4.726537,15.892086,0.74542236,135.0
8.236963,24.303198,1.0852582,41.0
5.4368796,19.275576,1.6150645,98.0
6.8758225,21.307774,1.7075852,49.0
6.5962644,17.390436,0.6622054,1.0
8.591693,20.32974,0.6699626,129.0
8.999179,22.16441,1.5514555,107.0
9.320466,19.969267,0.562181,134.0
11.740021,22.917385,0.50557894,66.0
9.759935,21.744785,1.4178625,48.0
10.576706,21.387066,1.2833899,102.0
4.7282343,16.109453,-0.3870092,96.0
5.342105,15.9586,-0.48721653,109.0
6.075344,21.741915,0.276346,1.0
5.3409333,16.733969,0.08570408,101.0
8.716864,23.18868,-0.7511229,1.0
8.577615,20.477535,-0.83100885,55.0
8.895879,24.722498,0.09797439,1.0
7.3558493,21.251122,4.7754498,24.0
7.9088035,19.662834,-0.08920955,32.0
8.38677,20.52205,4.5075326,80.0
6.198548,18.754295,2.160459,119.0
8.72854,19.485924,-0.208842,58.0
9.717735,19.679033,-0.31259382,77.0
8.977971,21.464966,2.318732,1.0
7.11452,19.847914,2.939787,37.0
7.146349,17.79853,2.564573,1.0
9.8241005,21.29756,2.222805,62.0
10.742141,24.190718,3.4425826,37.0
11.003581,22.46513,3.0688453,48.0
4.6293664,15.931063,0.74595445,73.0
7.2538967,21.859983,0.95993364,1.0
4.923152,17.87787,1.4851109,47.0
6.0622454,19.205248,1.5220557,90.0
7.6305776,20.515232,0.80370206,27.0
8.458412,20.370405,0.66945046,73.0
7.8741183,22.159012,1.6688701,9.0
9.074474,22.757748,1.5923204,28.0
9.213124,20.06742,0.5635781,38.0
11.504714,22.810467,0.5005326,80.0
9.621509,21.802027,1.417602,128.0
10.178659,20.912996,1.2475879,119.0
5.352075,22.155577,3.9378624,1.0
5.2267265,15.946266,-0.48622036,66.0
4.7437334,17.38186,0.1927273,50.0
5.2554297,16.83017,0.08654401,57.0
8.462631,22.948385,-0.7433524,1.0
8.509776,20.67886,-0.83600134,94.0
8.84127,25.064657,0.100702845,1.0
7.2359614,21.33768,4.784652,70.0
8.852207,22.406513,-0.08255911,128.0
8.467592,21.096006,4.6227317,31.0
5.5857744,19.558714,2.3436608,1.0
5.5437713,17.139578,1.9581172,41.0
8.66385,19.67222,-0.20932081,112.0
9.848285,20.857088,4.470679,30.0
9.463389,19.471811,-0.31022125,113.0
6.8155365,18.531492,2.0819569,39.0
6.968082,19.83059,2.9302497,36.0
7.0023317,17.762049,2.552289,63.0
9.565364,21.08331,2.1923525,122.0
11.608918,23.215742,2.2748203,35.0
9.866487,20.47246,2.775283,44.0
4.619296,16.278881,0.76361996,41.0
5.059075,15.591406,0.64338416,54.0
4.4797254,16.67085,1.3729496,142.0
4.811087,15.595035,1.2071979,61.0
7.4892316,20.52897,0.8021547,24.0
8.31815,20.39355,0.6682799,89.0
7.849883,22.539585,1.6958401,1.0
9.1076765,23.263744,1.6264216,99.0
10.318272,22.85887,0.6588361,63.0
11.071733,22.300526,0.48429447,69.0
4.447607,15.888267,-0.38270608,25.0
5.20558,22.158072,3.932369,1.0
5.1368546,16.011147,-0.486926,136.0
6.40806,24.105167,0.3197881,41.0
6.1292677,20.057755,0.1290748,75.0
8.104577,22.408659,-0.72776204,1.0
6.7121167,18.90659,3.2130482,1.0
8.810638,21.795355,-0.8718228,51.0
9.441741,22.552732,3.6999109,1.0
8.748156,25.30689,0.10247993,1.0
8.667765,22.349846,-0.08283449,55.0
8.239832,20.908262,4.5697484,7.0
4.9181437,17.525564,2.082707,1.0
5.374066,16.887337,1.9241238,33.0
8.513758,19.580719,-0.208842,76.0
9.569347,20.5153,4.3871036,52.0
9.485157,19.752256,-0.3123072,41.0
7.835634,21.628931,2.4485383,55.0
6.5234327,18.845491,2.77303,21.0
7.2092757,18.54025,2.6650789,99.0
10.502042,23.44629,2.4479935,39.0
11.283778,22.83474,2.229644,43.0
11.363397,23.857677,3.249714,33.0
4.630079,16.616087,0.78107256,41.0
4.9971356,15.651217,0.6451936,33.0
4.7503257,15.65948,1.2108132,106.0
7.394431,20.569677,0.8024126,50.0
8.273556,20.560411,0.67332804,81.0
5.866851,17.08951,1.250223,63.0
10.054467,22.556555,0.6466431,84.0
10.816562,22.047428,0.47580066,93.0
10.491467,24.50525,1.6020911,61.0
10.231269,21.620733,1.2869582,118.0
4.4238653,16.096155,-0.38558474,1.0
5.067993,16.056143,-0.48738256,36.0
5.664072,21.7101,0.27381432,96.0
6.019671,20.036633,0.12841304,59.0
7.6420255,21.442457,-0.7013821,1.0
8.67073,21.743822,-0.8687024,61.0
9.314937,22.547655,3.6917589,1.0
8.609511,25.291021,0.101941414,1.0
6.8948555,21.090538,4.7114506,38.0
9.015545,23.572544,-0.07992923,52.0
8.1767845,21.038137,4.589818,1.0
5.2524443,16.87147,1.9181113,76.0
8.318417,19.46456,-0.20823018,77.0
9.334868,20.34478,4.3376484,71.0
9.199922,19.471663,-0.30931365,108.0
7.667068,21.585938,2.4375856,55.0
9.163135,23.0134,2.4775393,1.0
6.6685057,19.66603,2.8932567,1.0
6.9793615,18.289255,2.6204097,103.0
10.30328,23.395218,2.4351714,56.0
11.20464,23.037657,2.243345,44.0
9.671142,20.644352,2.784441,36.0
4.530282,16.6622,0.78203034,80.0
4.8992963,15.684213,0.6452888,35.0
5.0952597,19.84421,1.6553588,42.0
5.7056165,19.226892,1.5151539,62.0
7.2570944,20.593111,0.80138105,41.0
5.8208084,17.309444,1.2650872,43.0
6.5322104,17.256325,1.1650699,97.0
9.852479,22.481916,0.6418802,82.0
10.669113,22.096956,0.47530103,86.0
10.300981,24.4842,1.5959674,77.0
10.048792,21.585085,1.2804164,76.0
4.524715,16.881054,-0.397218,39.0
4.906014,15.890952,-0.48310727,78.0
7.1659923,24.392149,0.18570615,42.0
5.9122567,16.911358,-0.5813608,1.0
6.605927,19.278183,3.2641728,34.0
7.8364244,20.02079,-0.80910414,134.0
7.5849056,18.70125,3.0480382,36.0
7.999172,23.987747,0.08910693,1.0
9.176403,24.450495,-0.077914365,50.0
8.312518,21.789993,4.743551,38.0
7.2092133,27.031208,3.2755349,1.0
5.738719,18.841932,2.153984,48.0
8.780821,20.9129,-0.21326433,50.0
9.145818,19.675919,-0.31060344,72.0
6.328134,18.167706,2.0249581,141.0
6.5168242,19.622997,2.8802514,1.0
7.4207087,19.814053,2.8434768,63.0
10.087427,23.300564,2.4177413,58.0
10.262244,21.444887,2.0718977,48.0
8.916661,21.420576,3.000601,1.0
10.98035,23.820297,3.2245297,42.0
4.4147997,16.649784,0.7797955,60.0
4.8270245,15.800629,0.6495742,46.0
4.0225143,16.069094,1.3118976,49.0
5.5936103,19.292982,1.5177832,106.0
8.9307785,25.875435,1.0396732,1.0
9.078791,23.399115,0.78080195,49.0
5.77534,17.53894,1.2807175,26.0
6.3735013,17.162426,1.1549242,137.0
9.699187,22.51583,0.6409276,61.0
9.481474,19.961206,0.41434553,28.0
9.048115,21.884281,1.4078304,51.0
9.918801,21.660498,1.2812489,70.0
4.202124,16.07693,-0.38445702,81.0
4.7996902,15.900414,-0.4826507,146.0
6.5832386,26.61589,0.36521152,33.0
6.953403,24.231058,0.18298276,47.0
6.0932693,17.790209,-0.6033853,1.0
6.5178666,19.418541,3.281108,28.0
7.4584527,18.726505,3.0444152,13.0
7.8637757,24.085075,0.08955569,1.0
9.168698,24.90357,-0.076945946,68.0
4.574985,17.569027,2.076892,1.0
5.620788,18.87952,2.1542153,71.0
8.33267,20.198248,-0.21049789,49.0
9.830852,22.160288,4.7007027,1.0
9.056175,19.807535,-0.3112563,71.0
6.302172,18.46677,2.0558045,49.0
9.012453,23.488718,2.5185015,127.0
6.664883,20.501326,3.0088594,1.0
7.3056536,19.886303,2.8473854,50.0
9.125091,21.442024,2.207579,17.0
10.904065,23.155025,2.2411232,94.0
7.669568,18.74915,2.6020668,1.0
5.0532904,19.566923,0.9387847,59.0
4.8314157,19.84858,1.6501257,39.0
5.429774,19.178198,1.5049653,89.0
5.9842453,17.677935,0.6649562,1.0
5.663807,17.571085,1.280411,1.0
8.911195,21.046059,0.5881547,55.0
9.269357,19.835709,0.40924925,92.0
8.947153,22.031336,1.4142145,57.0
9.861359,21.897081,1.2926675,50.0
5.411952,21.276934,-0.46366417,39.0
4.33629,17.988188,0.2016432,1.0
6.7880325,24.228064,0.18237191,46.0
5.419093,16.146181,-0.5594847,1.0
6.281413,19.110136,3.2216754,11.0
8.513851,22.576534,-0.8911688,64.0
7.3189883,18.717781,3.0353572,68.0
5.3592396,16.750187,0.019998189,1.0
8.938538,24.75758,-0.077441625,56.0
5.5488715,21.89177,2.6174562,1.0
5.739829,19.728731,2.2529583,31.0
7.958305,19.638288,-0.20830333,128.0
9.078969,20.814096,4.400905,63.0
8.906066,19.807526,-0.31076267,101.0
6.256996,18.719076,2.0810628,108.0
7.3292975,20.343437,2.9090848,106.0
10.419745,24.92595,2.5814235,1.0
10.728177,23.158054,2.234458,48.0
7.6923785,19.148373,2.6532915,27.0
9.241469,20.73603,2.7722304,84.0
4.9666452,19.743586,0.94676614,60.0
4.7017107,16.111172,0.66204953,67.0
4.494509,18.97874,1.5691882,43.0
5.28945,19.140871,1.498885,93.0
5.9056435,17.813847,0.6694264,1.0
7.948437,21.280293,0.6935937,138.0
4.954349,15.700096,1.1268662,49.0
6.1613727,17.252428,1.1557697,55.0
8.476905,20.374182,0.5631336,92.0
10.920123,23.746817,0.51527184,52.0
9.672414,24.258621,1.5667827,76.0
9.685516,21.872843,1.2870772,86.0
4.137715,16.687637,-0.3930039,32.0
5.131127,17.79565,-0.5223321,86.0
3.5981233,15.335478,0.15115644,86.0
6.81076,24.908606,0.19079661,43.0
5.2410336,15.946189,-0.55339706,1.0
6.125652,19.038303,3.2028232,40.0
8.529637,23.055038,-0.9053351,98.0
7.142995,18.6121,3.0105987,92.0
8.8650675,25.045092,-0.0768771,86.0
7.859083,21.828543,4.7186646,68.0
5.387516,21.829807,2.6053414,45.0
5.6233854,19.791151,2.2561958,1.0
8.343037,20.96873,-0.21288528,42.0
9.4775095,22.108814,4.663899,37.0
8.755504,19.804583,-0.3102531,70.0
6.1509666,18.793922,2.0853097,65.0
6.7172594,18.200392,1.9103702,77.0
6.80389,19.267172,2.7412958,59.0
10.2659445,24.998291,2.5822248,1.0
10.603966,23.272102,2.2392719,116.0
7.1090975,18.019596,2.4821846,41.0
3.8234265,15.594951,0.71754074,61.0
5.657334,19.831697,0.8450844,42.0
4.544633,16.866858,1.3018525,56.0
7.8393855,21.397352,0.6962275,47.0
4.8052278,15.566987,1.1136878,109.0
6.1817956,17.65784,1.1832478,113.0
8.565286,20.958307,0.5813596,53.0
9.158023,20.256563,0.41764313,57.0
9.522707,24.326351,1.5673039,53.0
10.368668,23.814362,1.4093512,52.0
4.418333,18.319498,-0.4175169,1.0
5.644201,22.228899,3.8424892,93.0
4.901552,21.534065,0.26735672,69.0
4.7335258,17.77198,0.096215874,149.0
5.161479,16.043543,-0.5550798,1.0
8.875967,24.45888,-0.95020545,51.0
6.7750907,17.992638,2.9022048,60.0
5.236403,17.10507,0.022708688,1.0
8.725268,25.1513,-0.07675318,63.0
5.5236297,19.794476,2.2534206,1.0
8.7799,22.376692,-0.21777312,78.0
8.638028,19.790657,-0.3097754,65.0
5.5327272,17.17253,1.8903959,92.0
6.858247,22.411665,3.2834156,1.0
6.86701,19.740303,2.807183,78.0
8.895717,21.948856,2.2458448,30.0
9.44227,20.989052,2.0013561,38.0
7.030554,18.069527,2.4845982,63.0
9.077625,20.985632,2.79309,27.0
3.9359415,16.391748,0.76021457,149.0
4.498858,16.071508,0.65757364,1.0
5.955828,26.478907,2.237795,1.0
5.0510364,19.093845,1.4900112,72.0
4.996368,15.6365795,0.5682468,1.0
6.3831353,17.690517,0.55049026,113.0
4.7635407,15.694447,1.1221159,73.0
7.281274,21.104918,1.4387245,30.0
8.480598,21.033676,0.5825662,106.0
9.112286,20.410816,0.4206909,119.0
6.6528926,17.217478,1.0668644,45.0
10.229478,23.800615,1.405307,133.0
3.966791,16.78663,-0.39383486,65.0
4.5200367,16.355885,-0.49012208,149.0
5.5274367,22.207418,3.8341563,34.0
3.5067613,15.723568,0.15772413,61.0
5.0948343,16.09629,-0.55582225,1.0
8.293161,23.196358,-0.9069577,75.0
6.8337355,18.409744,2.9650068,37.0
7.4049797,24.63339,0.093020104,1.0
8.61961,25.22998,-0.076661386,86.0
4.7936144,17.613567,1.9860982,1.0
8.66495,22.498627,-0.21801254,80.0
8.595419,20.67231,4.338415,1.0
8.436068,19.664495,-0.30821493,100.0
5.3223042,16.88081,1.8519496,139.0
6.681569,18.733828,1.9620457,1.0
6.696936,22.38604,3.2730114,1.0
6.7082434,19.68187,2.792107,92.0
8.730465,21.935883,2.238432,46.0
9.578192,21.652367,2.0628254,41.0
7.253212,18.996878,2.6125262,102.0
9.0039215,21.179125,2.812169,1.0
5.78934,26.515804,2.237795,1.0
5.102837,19.78899,1.546541,34.0
7.7425327,24.80635,0.98001415,1.0
6.28456,17.76606,0.5518803,79.0
4.6512814,15.678168,1.1184381,121.0
7.094081,20.98965,1.4267468,89.0
8.372501,21.147902,0.5846619,79.0
8.723766,19.876562,0.4045527,100.0
6.5198865,17.193598,1.0623043,48.0
10.075842,23.855227,1.4047124,79.0
3.4372575,14.955245,-0.36558262,70.0
3.2741659,15.123619,0.1460564,140.0
6.7713723,26.555096,0.2109294,35.0
4.987708,16.108877,-0.5553273,1.0
6.220806,17.765446,-0.72554165,41.0
7.253098,19.917559,3.2032318,16.0
5.2267823,17.771942,0.02841689,1.0
8.461552,25.285536,-0.076656796,59.0
6.93412,26.087378,3.0033574,1.0
8.823244,23.347984,-0.22083884,107.0
8.438702,20.660465,4.3246136,112.0
8.440826,20.021063,-0.31084228,77.0
5.216718,16.915817,1.8521731,50.0
6.237264,21.333279,3.1065435,1.0
6.608976,19.796867,2.8029952,74.0
10.127083,23.283895,2.222238,21.0
8.960324,21.449366,2.8419323,67.0
6.477469,28.620096,1.4255428,26.0
7.1655283,26.842768,1.1863941,25.0
5.9331512,28.023502,2.369493,1.0
4.7829165,19.045645,1.4806443,49.0
4.857668,15.889286,0.57684314,1.0
6.1399736,17.710812,0.54822224,56.0
4.5670533,15.756899,1.1224223,88.0
5.770801,17.445816,1.1597153,56.0
8.242351,21.207546,0.5849159,53.0
9.332117,21.626589,0.45071897,35.0
6.429074,17.281006,1.0655614,46.0
9.003439,21.700478,1.2616233,71.0
3.3960621,15.214729,-0.36920318,95.0
4.1905656,15.943544,-0.4800772,160.0
4.3986874,17.742441,0.09479055,93.0
4.8367696,15.975267,-0.55107087,1.0
6.049835,17.63218,-0.7198627,49.0
6.5338645,18.30431,2.9342098,34.0
6.179473,21.525,0.06315076,1.0
7.9342318,24.217148,-0.0793647,95.0
5.7222066,22.0985,2.5184307,1.0
8.289285,22.356249,-0.21712807,68.0
8.390385,20.917196,4.3675513,60.0
8.439898,20.37476,-0.31343776,56.0
9.506644,20.335657,4.1436205,4.0
5.1612005,17.117674,1.8720669,72.0
8.869273,25.86796,2.7495704,1.0
6.123143,21.442474,3.1172369,14.0
6.0931935,18.644936,2.6259935,108.0
8.489677,22.13679,2.2484493,133.0
9.756292,22.823545,2.1692858,42.0
6.910296,18.803652,2.571761,30.0
8.8389635,21.538263,2.8465114,54.0
3.6878088,16.743958,0.7755388,49.0
6.8922944,26.487133,1.1666812,1.0
5.7585545,28.068035,2.3701906,1.0
4.622277,18.908848,1.466512,34.0
4.800474,16.063131,0.58329046,43.0
6.036956,17.773634,0.54917336,59.0
4.4917517,15.869737,1.1291648,72.0
5.624686,17.36979,1.1514014,140.0
9.15303,21.583595,0.447971,120.0
6.307409,17.285423,1.0630859,71.0
9.911951,24.314474,1.4262412,58.0
3.3281734,15.364798,-0.37116185,72.0
4.137169,16.151583,-0.48397893,39.0
3.2335303,15.904476,0.15992558,80.0
4.697314,15.873008,-0.5476558,1.0
5.3613286,15.957519,-0.6634471,64.0
6.481597,18.524086,2.9631953,51.0
4.8981338,17.460611,0.024916578,1.0
7.47885,23.324055,-0.081636585,35.0
4.6696053,21.681915,2.5680277,1.0
5.5320473,21.931807,2.4941497,43.0
8.837376,24.30684,-0.2238447,57.0
8.233675,20.905556,4.3541336,69.0
8.053348,19.794083,-0.307992,54.0
9.609977,20.896759,4.2464466,1.0
5.554387,18.856585,2.0721219,40.0
5.869699,17.497375,1.8105905,1.0
5.9782314,21.444294,3.1117456,1.0
5.926895,18.530115,2.6033795,121.0
8.524539,22.653587,2.2983353,62.0
7.4868636,20.780947,2.8498766,1.0
8.713866,21.619123,2.8500726,50.0
3.5107374,16.42883,0.7571284,34.0
6.8010674,26.82614,1.1812515,1.0
4.6789865,23.539957,1.9628866,1.0
4.2171445,17.739414,1.3649555,25.0
4.713397,16.140945,0.58543956,28.0
8.425297,25.299593,0.8381604,113.0
4.362876,15.791894,1.1207367,67.0
5.616438,17.722279,1.1749339,113.0
9.011071,21.62592,0.44757128,67.0
6.176559,17.262678,1.0587864,131.0
9.670513,24.15578,1.4120868,92.0
3.2160442,15.311016,-0.37003413,105.0
4.2126355,16.883244,-0.49908775,64.0
3.1665277,16.093256,0.163081,56.0
3.5640457,15.203631,0.060888086,66.0
7.0690145,25.061022,4.180262,1.0
5.2126784,15.844733,-0.6586418,50.0
5.95741,21.7804,0.06482015,58.0
5.3626413,17.111141,-0.0966953,149.0
4.355524,20.855587,2.461417,1.0
5.433128,22.124298,2.513112,25.0
8.925706,25.040272,-0.22623876,89.0
8.090861,20.927572,4.3479996,103.0
8.114027,20.306555,-0.3119569,55.0
4.957739,17.22321,1.8769844,149.0
6.187501,18.831596,1.9549035,40.0
5.8366456,21.456602,3.1079886,44.0
5.8441772,18.674685,2.619293,66.0
6.7628508,18.309006,1.8265216,48.0
10.257304,24.850786,2.3610995,53.0
6.819611,19.30401,2.6312997,54.0
7.4452825,18.819078,2.4562824,82.0
3.2511914,15.69158,0.715838,73.0
3.792541,15.400139,0.6180526,1.0
4.499159,23.402557,1.9480596,32.0
5.6383705,19.78588,0.7471378,1.0
8.207172,25.171556,0.8312101,79.0
5.175279,19.218485,1.3912023,40.0
4.8427806,15.62943,1.0175333,95.0
7.577953,20.640184,0.56059337,1.0
8.867425,21.663614,0.44707164,38.0
6.1298656,17.478243,1.0710336,79.0
9.51562,24.208635,1.4116111,57.0
3.1487038,15.47401,-0.37220052,65.0
4.052893,16.689873,-0.49439737,120.0
3.0783439,16.181604,0.16436519,104.0
4.9113755,21.521978,0.14309901,68.0
6.9730735,25.329603,4.2179666,1.0
5.768089,17.90285,-0.7251048,65.0
6.871507,20.45326,3.2612028,1.0
6.72895,27.946697,3.207318,1.0
8.817525,25.110367,-0.2263385,46.0
8.34022,21.88103,4.539303,43.0
9.122291,23.138224,-0.33587357,30.0
9.352312,20.940144,4.234005,1.0
5.4891067,16.981956,1.7463113,137.0
6.57387,21.34919,3.0098698,49.0
6.603193,18.138645,1.8048843,79.0
8.922537,21.915638,2.0615294,93.0
6.9195232,19.886444,2.7101483,35.0
6.922753,17.745554,2.3036504,53.0
4.3474464,21.529877,1.0323266,89.0
3.7062674,15.361539,0.6152909,82.0
5.145265,27.479786,2.309313,61.0
6.0232735,26.589464,2.109374,1.0
5.305188,18.95187,0.70871186,1.0
8.040722,25.061546,0.82550347,62.0
4.202169,15.8890505,1.1247209,93.0
5.4346642,17.82684,1.178175,58.0
8.987931,24.853846,0.70170224,29.0
8.774993,21.729252,0.44772118,49.0
6.0786114,17.597515,1.0772874,36.0
6.671237,17.22633,0.9624801,57.0
3.1473417,15.851643,-0.37769073,144.0
3.9802442,16.734068,-0.49493697,73.0
3.4329762,15.403866,0.06300063,55.0
4.680806,16.8885,-0.5717096,1.0
6.0093265,22.228151,3.692661,1.0
7.2607775,22.886438,-0.8874868,36.0
6.7246194,20.333418,3.2367463,1.0
6.4594083,24.689331,0.091207124,1.0
7.598978,25.182205,-0.07748294,53.0
6.224794,26.590178,3.0401258,1.0
5.700644,16.54502,-0.19603384,141.0
9.113443,23.547483,-0.33888304,1.0
9.162732,20.86712,4.207292,1.0
5.390124,17.040754,1.7490422,54.0
7.1490054,27.492537,4.009111,1.0
6.420131,21.325615,3.0003777,45.0
6.5831385,18.444128,1.833133,62.0
8.679454,21.708786,2.0352383,27.0
6.9876695,20.498117,2.7914107,27.0
6.8822503,17.973885,2.3290892,52.0
3.6160994,15.411743,0.6166241,63.0
3.4848661,19.24651,1.5740724,135.0
5.1773257,23.551485,1.8497313,120.0
7.9719124,25.393726,0.83633137,97.0
4.4574127,17.300112,1.2345928,30.0
4.699801,15.779211,1.02472,52.0
6.3047523,17.765331,0.46095344,1.0
5.914997,17.478395,1.0664735,47.0
6.5109425,17.13173,0.9537972,140.0
3.042811,15.845569,-0.3773049,72.0
3.2545998,21.902164,3.824558,1.0
3.8795507,16.778223,-0.49535206,62.0
3.3887038,18.964966,0.21562245,49.0
3.3833284,15.642036,0.065825835,87.0
5.711099,21.139961,-0.6799515,1.0
5.8138695,22.053513,3.6571934,1.0
6.8340263,22.02307,-0.8577813,43.0
6.6003933,20.386549,3.2385578,65.0
4.4987035,17.623499,0.025401236,1.0
5.2806077,17.926197,-0.09496041,57.0
6.367071,27.9845,3.2019994,1.0
5.6494827,16.737854,-0.19658579,71.0
7.852162,21.403429,4.41854,66.0
8.949656,23.56316,-0.33853275,58.0
8.990058,20.828638,4.1878977,7.0
5.3185105,19.765455,2.16332,1.0
5.2982893,17.123669,1.7545037,60.0
6.261902,21.28386,2.9883726,66.0
6.5667095,18.770733,1.8635856,29.0
6.29603,18.851046,2.5503054,99.0
6.762885,18.000067,2.3267996,121.0
5.1281586,27.178778,1.3357257,1.0
3.3992925,19.472181,1.5922135,33.0
5.4237747,20.363176,0.7686288,1.0
4.8981414,15.978382,0.47381723,124.0
3.9755988,15.834192,1.1162928,92.0
4.6061635,15.827578,1.026129,113.0
9.216552,23.670547,0.49688527,19.0
5.7168264,17.248005,1.0481027,89.0
6.475931,17.366766,0.96616733,59.0
3.1194012,21.93974,3.8276482,1.0
3.4515934,15.374544,-0.4649684,139.0
6.406887,20.222244,3.2056472,46.0
4.4522433,17.911564,0.02780658,1.0
5.160098,17.932123,-0.09502466,91.0
4.66401,25.32062,3.0034354,1.0
6.2113214,28.11511,3.212868,1.0
8.333285,25.243608,-0.22623876,41.0
8.74544,23.469048,-0.33725888,116.0
8.878247,20.929947,4.197046,1.0
5.7690105,21.998293,2.419033,56.0
5.2351093,17.303158,1.7706786,113.0
6.27795,25.445127,3.6880248,1.0
6.379382,22.194298,3.1162384,52.0
8.804003,25.705532,2.5970504,1.0
8.743972,22.691076,2.1224432,1.0
6.1301765,18.745134,2.5296547,115.0
4.704878,25.81918,1.2603813,1.0
3.6927617,16.670776,0.6759533,1.0
3.9189763,23.336988,1.9334072,58.0
3.8487618,18.641914,1.4310164,137.0
4.0090203,15.4212885,0.54752946,1.0
4.8062916,16.03755,0.47491464,91.0
3.8981702,15.949931,1.123495,70.0
4.5542836,16.023102,1.0383885,57.0
7.340907,21.553083,0.58542395,54.0
8.592741,22.48825,0.4637095,1.0
5.7298856,17.659588,1.0739,31.0
6.3206005,17.28154,0.95819813,85.0
3.365559,18.820189,-0.42158258,33.0
3.013611,22.197126,3.8695364,1.0
3.313384,15.2064705,-0.46094218,68.0
2.4313176,21.805504,4.9479575,1.0
3.2766552,16.124157,0.0715526,141.0
4.1461716,16.13111,-0.55018,1.0
4.6366305,15.654094,-0.6475958,51.0
6.2920303,20.301746,3.2119877,29.0
6.488144,26.863836,0.110198565,1.0
5.0549293,17.991138,-0.09496041,59.0
4.4354863,20.718952,2.3276513,48.0
5.531967,17.096863,-0.19759661,37.0
8.798873,21.1105,4.2222953,1.0
5.5679135,21.787575,2.3904216,45.0
5.07307,17.156483,1.7509327,91.0
6.3599987,18.94046,1.8730018,1.0
9.501288,25.119734,2.3585074,43.0
5.9333825,18.535925,2.4945214,70.0
6.8655143,18.991842,2.450686,98.0
4.1571007,23.644867,1.1411927,1.0
4.640685,21.563503,0.9134607,36.0
4.6840057,29.038412,2.4368246,45.0
5.519737,27.56099,2.1790502,35.0
3.9071658,15.426797,0.54666984,100.0
4.691329,16.019497,0.4730856,40.0
4.770172,20.086267,1.448207,51.0
4.4074454,15.88613,1.0262699,156.0
8.395212,25.17619,0.70519507,87.0
7.939851,21.181192,0.42738602,30.0
5.511072,17.354635,1.0505782,120.0
6.322765,17.628988,0.9777049,61.0
3.190533,18.50982,-0.4165969,1.0
2.8607798,22.11205,3.851339,1.0
3.1923995,15.107683,-0.4584102,63.0
3.0543904,19.175577,0.21841097,1.0
2.2989116,21.864967,4.9581437,1.0
4.2578173,17.012436,-0.5720066,1.0
4.5153017,15.604216,-0.6450372,144.0
6.262709,20.664333,3.2636182,43.0
3.569004,15.156183,0.0019042637,1.0
4.94816,18.045683,-0.094905324,100.0
5.444288,17.194227,-0.19781607,99.0
7.975774,22.257717,-0.3260967,59.0
8.571234,20.93436,4.1758223,1.0
5.530861,22.225304,2.4371386,38.0
5.011722,17.348475,1.7685779,134.0
7.095021,25.893341,3.645569,33.0
5.709206,17.357567,1.7011054,125.0
6.8489523,18.47264,1.6932693,101.0
5.833332,18.625814,2.5020308,38.0
7.3448167,20.718693,2.6798882,87.0
3.1889288,18.806068,0.87833905,57.0
4.4928117,21.533579,0.9106037,51.0
5.32705,27.495342,2.1706693,40.0
3.7901711,15.3695345,0.54305935,64.0
7.177793,25.052025,0.81599253,66.0
6.167374,26.744976,1.9709028,31.0
5.41747,16.570528,0.41592816,43.0
7.776175,21.14812,0.42518762,1.0
5.007248,16.113428,0.96341497,60.0
6.14678,17.48386,0.9660484,129.0
2.792901,16.822714,-0.39092654,42.0
2.6948125,21.908583,3.8125408,1.0
3.2467742,15.852051,-0.47376806,83.0
2.5692654,16.792309,0.17383145,1.0
2.1495187,21.756691,4.9302416,66.0
3.1143904,16.376188,0.07430145,69.0
4.1291766,16.94947,-0.56972986,1.0
6.19415,20.909845,3.2965288,3.0
3.5340374,15.443522,0.004345508,1.0
6.428069,24.008118,-0.08081045,28.0
3.823697,22.968756,2.7029872,1.0
7.247603,23.294079,-0.2189635,35.0
5.884651,16.684416,-0.27870923,73.0
8.478393,20.989098,4.1787496,14.0
5.436387,22.29361,2.442056,1.0
6.2786083,22.10409,2.2882729,37.0
6.946101,25.82706,3.6310515,68.0
5.5552807,17.160797,1.6774646,39.0
6.74332,18.454226,1.6882702,34.0
6.5638175,18.802197,2.4148173,35.0
3.4440653,20.921926,0.9917811,33.0
3.2106776,15.786788,0.62995654,38.0
3.0140386,20.045406,1.6363455,1.0
3.5929325,19.058132,1.460596,141.0
3.703232,15.326996,0.5403944,90.0
4.9840045,17.732018,0.53629696,33.0
5.262996,23.312626,1.6982919,11.0
5.2230387,19.644125,1.2975289,31.0
8.082503,25.156565,0.70151174,66.0
9.038717,24.933443,0.52486485,54.0
4.8307548,15.806532,0.940875,103.0
6.09971,17.614466,0.97247136,43.0
2.6801133,16.626373,-0.38778082,17.0
2.320938,19.613861,3.4077349,1.0
3.1554706,15.784843,-0.47202474,156.0
2.5075502,16.922934,0.17603292,42.0
2.048054,21.77823,4.932899,53.0
3.482438,18.777308,0.10520054,66.0
4.0229354,16.857857,-0.5669087,1.0
5.863999,21.106138,-0.82177263,43.0
3.4151735,15.253075,0.0024427734,1.0
6.3923435,24.332102,-0.080112815,83.0
5.890262,21.937298,4.619119,86.0
3.4687154,21.668922,2.5394366,56.0
7.141159,23.471214,-0.21942237,102.0
5.760039,16.664377,-0.27823153,33.0
8.352887,21.0584,4.182043,1.0
5.102895,21.509153,2.3475049,1.0
6.1097465,22.035799,2.2765095,60.0
5.418005,17.102377,1.6676476,67.0
6.5982695,18.415648,1.6803088,111.0
7.2711153,21.248516,2.7409408,50.0
4.5161076,28.600142,1.4047912,21.0
3.2100542,16.304396,0.65414536,22.0
2.868581,19.927858,1.6243095,1.0
3.5108128,19.286198,1.4778508,40.0
3.7577703,15.995954,0.5689345,33.0
6.8599668,24.97721,0.8102128,39.0
5.2336607,20.192059,1.3351529,149.0
8.038506,25.571173,0.7136413,59.0
6.3071375,17.76311,0.3331548,129.0
4.7137074,15.777271,0.93683606,148.0
5.888531,17.357618,0.9539162,105.0
2.5513184,16.484755,-0.38540667,1.0
2.163335,19.318645,3.353486,1.0
3.0688398,15.869127,-0.47339448,59.0
2.4145303,17.033405,0.17779408,100.0
4.268478,23.819654,0.17012936,113.0
3.9776294,17.145805,-0.57359034,1.0
6.015951,26.716454,4.398181,1.0
4.3489313,16.061825,-0.65739363,83.0
6.3224225,22.233385,3.4961064,1.0
3.4678657,15.962341,0.008761287,1.0
4.525665,17.700382,-0.09591965,60.0
5.741855,21.934078,4.61069,55.0
3.3082256,21.531324,2.5198107,91.0
4.846381,25.542217,2.8875022,1.0
7.00321,23.548218,-0.21953541,39.0
5.5966487,16.527927,-0.2767825,1.0
8.186084,21.022549,4.1644783,1.0
6.132234,26.611984,2.932694,1.0
5.146321,19.035233,1.9439802,69.0
5.417082,25.160603,3.6192412,1.0
5.3877354,21.100964,2.930861,1.0
5.305159,17.118967,1.6658446,136.0
6.4612513,18.39664,1.6743841,74.0
6.4104757,19.131397,2.4483964,34.0
2.94867,19.423168,0.90877473,37.0
5.075474,26.59351,1.1525869,19.0
3.8905048,28.349104,2.3668764,45.0
3.7927613,21.59068,1.6689675,67.0
4.173825,18.295189,0.6693404,33.0
4.111346,15.37667,0.44469905,76.0
5.9083776,27.811281,2.0466025,1.0
4.05058,16.059046,1.0316247,83.0
7.604588,24.730574,0.68404776,125.0
8.720075,25.031841,0.5245151,59.0
4.63676,15.883236,0.9420476,46.0
5.7484064,17.301472,0.94808793,111.0
2.403165,16.19775,-0.38086614,79.0
3.02195,16.169102,-0.4793301,97.0
3.5126967,21.893059,3.7138262,14.0
2.286456,16.891668,0.1748955,42.0
1.6916548,20.775782,4.6990533,1.0
3.480593,15.434094,-0.5295413,1.0
5.782423,26.452787,4.3483343,1.0
4.278687,16.204763,-0.66113806,67.0
6.162974,22.202202,3.484935,1.0
4.349117,20.671959,0.05175231,1.0
6.926309,27.768988,-0.0721681,35.0
6.345945,21.834026,-0.21345054,124.0
5.6360946,16.993507,-0.2803971,57.0
6.250893,27.9322,3.080444,1.0
5.6557393,21.443655,2.2036176,36.0
4.5519013,21.7937,3.1120348,1.0
5.350983,21.518688,2.9866977,25.0
5.235439,17.277699,1.6790674,93.0
6.174761,18.820824,2.4010806,110.0
2.8043196,19.28713,0.9004741,52.0
5.0304704,27.284899,1.1845846,1.0
3.5791419,27.349564,2.2765195,33.0
3.9566033,23.374718,1.8162079,94.0
3.6992517,16.689749,0.5974745,1.0
4.053658,15.551069,0.45033246,67.0
3.902573,18.922583,1.3464568,86.0
4.508545,18.348398,1.1963528,66.0
7.5454865,25.099554,0.69471663,31.0
8.113391,23.773304,0.48984042,53.0
5.1253247,17.985584,1.0827596,71.0
5.6594152,17.39798,0.9518941,49.0
2.3044093,16.234312,-0.38119256,143.0
2.879551,15.963491,-0.4745982,98.0
3.3735604,21.904955,3.7121594,87.0
2.1686215,16.814459,0.17320772,78.0
3.3329666,15.223171,-0.5236516,1.0
4.59274,21.643932,3.5469558,1.0
3.2960298,16.14774,0.01007166,1.0
4.0667567,16.786192,-0.09820989,41.0
2.9571078,20.997086,2.44906,34.0
5.1182227,18.01875,-0.20013031,62.0
5.456074,16.80421,-0.27851814,82.0
7.387704,19.704786,3.8823466,1.0
4.686063,21.552952,2.3419168,22.0
7.203918,28.001675,2.9150999,16.0
5.2362466,21.63656,2.9989817,85.0
5.1104517,17.254902,1.6732574,74.0
6.0101404,18.715752,2.3817472,114.0
3.2299228,23.269157,1.1137367,36.0
4.175298,23.488962,0.99926424,1.0
3.5427692,28.466936,2.373156,1.0
3.5312264,16.417612,0.58449394,1.0
3.9301581,15.475533,0.44652808,109.0
3.644149,18.244555,1.2914442,42.0
3.8288915,16.027205,1.0257063,84.0
5.8922286,20.041677,0.52572894,50.0
5.5022764,16.479792,0.29628173,148.0
6.729933,24.218216,1.502811,41.0
4.9714093,15.622769,0.8386598,74.0
1.9093298,20.558722,3.5639577,1.0
2.7764328,15.965512,-0.47426614,114.0
3.2358618,21.925718,3.7121594,30.0
3.255815,26.655958,0.35486466,38.0
2.858454,17.919022,0.093085244,58.0
3.2723382,15.410098,-0.5278585,1.0
4.1660423,16.619741,-0.6728081,1.0
4.130228,20.934961,0.053672995,1.0
4.2857375,18.181498,-0.094978765,99.0
2.7870424,20.729916,2.4139268,1.0
4.6950755,27.563665,3.1159751,1.0
6.4495325,23.282751,-0.2181788,61.0
5.321207,16.746704,-0.27775383,106.0
7.0288067,28.050241,2.91552,1.0
5.108852,21.705652,3.004286,57.0
5.0057926,17.300055,1.6746597,77.0
5.909133,18.806118,2.38887,74.0
3.0675085,23.166225,1.1071388,40.0
4.3202124,27.604837,2.1652465,27.0
4.48478,21.538296,0.808516,1.0
3.8444195,15.546472,0.44828394,67.0
3.6547031,18.919212,1.3424726,97.0
4.0357666,17.368122,1.1212459,76.0
7.22124,25.16356,0.6937641,83.0
5.4092226,16.546331,0.2971311,80.0
4.451636,16.393595,0.9708414,142.0
4.877918,15.6689415,0.83961135,153.0
3.1816761,24.718178,-0.50770444,34.0
2.7435977,16.382896,-0.4826922,70.0
3.1571317,22.36148,3.7831576,31.0
4.0090384,26.127115,0.19855957,42.0
2.4708898,20.76247,4.592719,1.0
3.2379253,15.735938,-0.53557944,1.0
4.2772393,17.525082,-0.7010783,76.0
6.551413,25.442286,3.978293,1.0
3.6175144,18.952423,0.035327766,1.0
3.450732,15.0779705,-0.10234977,70.0
3.7989104,22.976286,2.5720801,1.0
7.4782176,27.513311,-0.23264949,80.0
4.99191,15.973978,-0.27109793,95.0
7.1867185,19.829176,3.891129,1.0
5.2144656,21.254286,2.1727386,34.0
5.007849,21.735273,3.0051236,68.0
5.5219584,19.435396,1.8956409,112.0
5.980297,19.349115,2.4580631,76.0
2.80689,21.98569,1.0429684,40.0
2.6927505,16.217564,0.64566976,1.0
3.2714562,28.876385,2.4059498,1.0
4.192483,27.640654,2.1665611,63.0
3.7725356,15.57024,0.44850343,115.0
4.053513,21.543121,1.5462795,74.0
5.7120705,20.249584,0.5304918,53.0
5.329961,16.567833,0.29703116,80.0
5.3417883,20.062246,1.2172177,36.0
4.8550777,15.857774,0.84995943,68.0
3.0678473,24.754728,-0.50803083,72.0
1.5432034,18.846306,3.2611258,1.0
2.6188278,16.105577,-0.47659057,78.0
3.042869,22.311638,3.772158,42.0
3.1075685,28.005953,0.3791541,1.0
2.501988,21.893219,4.8420615,1.0
3.1574757,15.71965,-0.5347876,1.0
4.812962,24.798307,4.0543675,1.0
4.035823,16.884182,-0.67986006,75.0
4.232511,22.778534,0.07009754,1.0
3.3493114,14.959439,-0.10266646,123.0
3.435053,21.62651,2.4102068,127.0
4.5976214,17.315586,-0.19741707,153.0
4.8750124,15.951495,-0.2706521,96.0
7.0553856,19.855417,3.8874698,1.0
5.140804,25.802546,2.8202608,1.0
5.3408747,22.371695,2.2905836,1.0
3.987192,21.622377,3.0715737,1.0
4.8811727,21.810751,3.011545,53.0
5.3584027,19.320095,1.8800138,66.0
5.986912,18.824087,1.698083,1.0
5.903516,19.534382,2.4779053,57.0
3.2984965,27.23565,1.3238068,70.0
3.1476219,29.439228,2.4537446,1.0
2.8833094,19.889563,1.5186048,142.0
5.3451004,27.190588,1.054201,1.0
3.6801617,15.616974,0.44938135,50.0
3.9209113,21.583864,1.5475054,80.0
4.117815,18.64234,1.2103033,49.0
5.21355,18.931763,0.48591107,26.0
5.2106934,16.553335,0.2957821,60.0
4.2920914,16.522705,0.9763136,150.0
4.7225814,15.778986,0.8431797,85.0
2.0061526,17.011082,-0.39205426,66.0
1.3916854,18.41157,3.1835294,1.0
2.8452861,21.892319,3.6974933,14.0
2.5296974,24.156395,0.30779016,1.0
2.3794236,16.783854,0.077890225,1.0
2.3540256,21.813383,4.8208866,114.0
3.095779,15.931567,-0.5396379,1.0
4.6389346,24.73102,4.038391,103.0
3.922381,16.878061,-0.67886156,43.0
4.2733693,23.836344,0.079503514,1.0
3.236452,14.894219,-0.10286841,62.0
3.0808182,26.403252,3.1054423,1.0
5.051759,16.905104,-0.27832708,55.0
4.9366283,25.615728,2.7952259,1.0
4.031089,17.387882,1.7465214,15.0
4.703364,26.462322,3.785709,1.0
4.702246,21.649433,2.9839058,145.0
5.817904,21.509176,2.1048017,34.0
5.8934503,18.94117,1.7058593,37.0
5.7479596,19.460775,2.4631507,27.0
3.1064966,27.073278,1.3140162,53.0
3.9637282,25.801933,1.1063997,1.0
2.8002264,27.83276,2.3107085,10.0
5.088673,26.77208,1.0344293,1.0
3.6690068,16.017633,0.46357465,158.0
4.1001005,23.415442,1.6884847,75.0
3.9896777,18.617136,1.2066395,139.0
5.401884,20.113138,0.5236967,1.0
7.7517557,25.141375,0.51956874,74.0
4.6340394,15.844742,0.8454396,93.0
1.9176573,17.19032,-0.3945471,52.0
1.2710176,18.34722,3.1708255,1.0
2.4117594,16.107555,-0.47596794,61.0
2.6971993,21.825617,3.6831603,1.0
0.95914006,21.253933,4.7969317,45.0
3.6414576,26.810692,0.2065007,40.0
2.215927,21.818031,4.818726,70.0
3.0069814,16.011635,-0.5411722,1.0
4.4606905,24.633385,4.017622,44.0
3.493194,15.479293,-0.6333047,121.0
3.908663,22.613111,0.068123005,1.0
3.1598208,14.994476,-0.10268023,109.0
3.0717678,21.046875,2.3371325,50.0
6.144512,24.405928,-0.22153045,97.0
4.947693,16.944187,-0.27839077,74.0
6.9307766,20.308979,3.9595578,1.0
4.794061,25.745903,2.8066256,25.0
4.209069,24.567802,3.5007484,1.0
5.910426,19.423496,1.749184,78.0
6.420393,25.839428,3.46377,1.0
7.705576,26.678133,3.4219337,24.0
2.2902668,21.089495,0.9923132,92.0
2.8264608,19.237654,0.7888979,1.0
2.1397288,22.65841,1.854214,1.0
2.9920871,22.619202,1.742752,46.0
4.861433,26.481169,1.0203313,1.0
3.5473452,15.946749,0.4600629,53.0
4.057097,15.475376,0.37033132,1.0
7.6063643,25.231688,0.5206679,56.0
3.9382536,15.980258,0.9363149,94.0
4.7293525,16.55287,0.88754565,68.0
1.7767165,16.885769,-0.3898285,61.0
1.1484158,18.236849,3.1502247,1.0
2.5762086,21.979221,3.706493,33.0
1.4973922,16.196775,0.16058601,1.0
0.8236603,21.208868,4.7854166,70.0
2.7105145,20.976942,0.13134006,76.0
1.8326409,19.27155,4.2496033,52.0
2.9314685,16.169924,-0.54468626,1.0
3.4092054,15.561453,-0.6352393,68.0
5.881892,25.296919,3.9323993,1.0
3.7462618,22.514893,0.06701008,1.0
3.0844731,15.106108,-0.10246452,54.0
2.8581977,20.487387,2.2691455,87.0
4.2134905,17.166021,-0.19661905,50.0
4.853799,17.01916,-0.278757,37.0
4.7418957,21.666111,2.2038279,1.0
6.839999,26.629337,2.6295063,1.0
5.83612,19.620537,1.7647365,40.0
2.650644,18.867344,0.7702325,52.0
2.593737,29.511189,2.4553146,1.0
3.4852636,27.648298,2.159166,85.0
4.1759133,23.567364,0.8917292,1.0
3.4933126,16.181614,0.4680375,56.0
3.8515818,23.750572,1.7107042,1.0
3.7680779,18.728374,1.2111487,128.0
3.9464903,15.448252,0.36861667,72.0
7.098702,24.097841,0.4898904,77.0
3.8359177,15.9969225,0.9357937,160.0
4.591319,16.461145,0.8800522,112.0
1.6849695,17.043882,-0.39202458,33.0
1.0387261,18.332233,3.1656752,1.0
1.3991466,16.247707,0.16135652,115.0
0.68964684,21.190231,4.7801023,56.0
3.274534,26.614187,0.20342097,46.0
1.7148379,19.319637,4.2578135,23.0
2.8472471,16.28849,-0.5472104,16.0
3.65041,21.69652,3.5268257,18.0
3.347731,15.752637,-0.6406687,81.0
5.7127776,25.289028,3.9254546,1.0
2.8493304,17.787868,0.02383956,1.0
4.4581275,22.504446,-0.08519817,48.0
3.5854588,15.003105,-0.18913764,121.0
6.1100965,18.673935,3.622537,1.0
4.8686733,28.11522,3.0703855,1.0
6.6503987,26.582972,2.6202905,1.0
5.7071495,19.637701,1.762885,74.0
6.363819,27.06428,3.6230762,1.0
2.7455206,28.705675,1.3985125,26.0
3.0892031,23.005417,0.9685044,30.0
3.559007,20.833248,0.77129364,1.0
4.3450694,20.730833,0.6374058,59.0
3.2548943,20.885357,1.4860568,27.0
4.1911597,21.514225,1.409978,47.0
3.8824778,15.606635,0.37299854,56.0
5.8105016,20.204008,0.38746515,43.0
4.4820085,16.468485,0.8787438,71.0
1.530016,16.530369,-0.3842196,49.0
0.9069483,18.001883,3.106963,1.0
1.2846644,16.098688,0.15845793,62.0
0.5542231,21.10446,4.759729,70.0
2.779775,23.845627,0.16768593,42.0
1.7370363,21.050283,4.6398215,1.0
2.7685697,16.448046,-0.5507739,1.0
3.536276,21.857424,3.5495121,51.0
3.2093332,15.58349,-0.63461524,87.0
5.5376186,25.25105,3.9139812,1.0
4.023558,26.233522,0.10036179,1.0
2.8645394,14.9885235,-0.1028271,115.0
3.5278594,15.076325,-0.1893305,128.0
6.6378517,24.25152,-0.33803913,1.0
3.8777828,23.016018,2.486314,1.0
5.373874,25.895493,2.654622,46.0
3.4782515,22.635548,3.2050948,1.0
5.0618777,21.974804,2.9123657,1.0
6.9705596,25.800158,3.2881262,44.0
2.024199,22.219921,1.0508434,1.0
3.0133014,23.26932,0.9805036,1.0
1.6414464,21.29341,1.7314122,1.0
3.1840267,27.71069,2.1613026,107.0
3.4718535,20.91682,0.7742164,1.0
4.24129,20.721712,0.63630843,69.0
2.9972537,19.839502,1.4036146,17.0
4.084493,21.506302,1.4080052,144.0
3.8362072,15.737435,0.37668186,123.0
7.835763,27.709919,0.58172333,64.0
4.4954324,16.82879,0.8996779,100.0
1.4455473,16.461687,-0.3830919,32.0
0.8207044,17.974463,3.1014693,1.0
1.2268877,16.349855,0.16297093,95.0
0.45432344,21.085388,4.7548575,120.0
2.713718,24.269825,0.17295456,52.0
2.6817448,16.403675,-0.54933864,1.0
3.7786634,24.087904,3.9121773,72.0
3.1802704,15.8178835,-0.6416048,109.0
5.8669367,27.360458,4.2394648,25.0
3.9639175,26.685469,0.10429291,1.0
4.1960306,22.475441,-0.08537717,66.0
1.6888654,19.455563,2.2445612,1.0
3.1291673,25.620808,2.865765,1.0
3.4088147,14.990901,-0.18896474,78.0
4.6371484,17.392193,-0.2811614,49.0
3.5010254,21.5997,2.3222466,150.0
4.178096,28.411972,4.054485,14.0
4.007501,21.530941,2.9481704,104.0
6.2992544,26.408619,2.5948467,1.0
5.352438,19.204487,1.7151167,34.0
4.8340592,21.603798,2.8565814,37.0
1.9437884,22.938715,1.088622,43.0
3.3554876,27.22712,1.1697285,38.0
3.2515001,29.941437,2.3446956,34.0
2.6119306,16.343912,0.5740923,1.0
5.374567,27.09303,0.87313145,60.0
2.8728235,19.859917,1.4037678,1.0
5.2616153,19.087389,0.3568875,49.0
3.6289375,16.3785,0.95703083,49.0
5.090553,19.53561,1.0646527,84.0
1.4689357,18.05119,-0.4066255,39.0
0.8482162,21.653175,3.7421546,1.0
1.9767131,16.559462,-0.48406196,101.0
1.1163267,16.241524,0.16084285,58.0
2.9602787,28.040937,0.2210085,98.0
1.3503102,18.92569,4.164472,1.0
3.609424,23.992064,3.8926861,55.0
3.0908103,15.888559,-0.64322734,65.0
5.6638203,27.247755,4.216216,1.0
2.3864923,16.737394,0.0138950795,1.0
2.8493264,21.957922,4.7014112,108.0
4.3124347,23.92421,-0.08205884,72.0
1.5788513,19.620155,2.2634604,46.0
3.0741563,26.549622,2.9723701,1.0
3.406281,15.430077,-0.19038787,55.0
5.592688,28.750496,2.9548016,67.0
3.0503902,21.654392,3.0542333,1.0
4.251694,18.306507,1.7535958,1.0
4.531405,16.673086,1.4679437,46.0
5.835362,26.893177,3.5847247,31.0
6.741293,26.256477,3.337223,67.0
1.7997772,22.952467,1.0887283,51.0
2.453228,21.031622,0.87136835,45.0
1.8628107,21.410423,5.8990703,1.0
2.9873936,29.223686,2.2835646,51.0
4.005647,26.19763,1.0021929,1.0
5.1240907,26.710196,0.85762125,133.0
3.1380663,22.720478,1.6242778,43.0
4.1486564,23.437626,1.5430006,135.0
3.5894754,15.572015,0.36975977,110.0
4.1278667,15.365736,0.25970843,135.0
3.716992,17.294847,1.0167031,57.0
4.272755,16.84139,0.8970611,94.0
1.5365349,20.50911,-0.44306853,38.0
0.63842666,19.350054,3.3397522,1.0
1.9019052,16.827833,-0.48941645,66.0
1.0701733,17.162355,0.17764731,58.0
1.5914825,16.127405,0.068396516,56.0
3.2084627,22.26705,3.6070273,89.0
3.0470684,16.20425,-0.6526508,78.0
4.3791647,21.773338,3.3578212,1.0
3.6646502,27.002718,0.10673415,1.0
2.708453,21.952097,4.6963916,132.0
3.055865,17.616713,-0.09681463,51.0
1.4491745,19.542568,2.2527993,58.0
3.312595,15.466824,-0.19044107,97.0
5.3154125,22.01052,4.3882537,57.0
5.396533,21.29447,-0.31275305,89.0
5.3466454,28.439133,2.9176207,69.0
2.9260583,21.761402,3.0672388,43.0
4.2781143,24.689598,3.3931878,44.0
5.9172134,26.264347,2.5720072,35.0
5.6887465,21.440891,1.9239641,33.0
5.692299,27.053455,3.6018891,1.0
6.552535,26.204033,3.324758,56.0
1.478922,20.48313,0.9562374,87.0
2.3678637,21.467543,0.8915574,37.0
1.7327979,21.477428,5.9145064,90.0
2.1905556,22.89306,1.757706,49.0
3.3708248,22.995365,0.8618997,1.0
3.7068229,28.179228,2.0458364,52.0
3.9952452,23.427835,1.5404642,55.0
3.6227152,16.183537,0.3889384,41.0
4.8136535,18.363138,0.33650237,35.0
3.6321378,17.43316,1.0243901,95.0
3.8926504,15.763453,0.82926327,83.0
1.1455355,16.641638,-0.38540667,38.0
1.8167244,17.030302,-0.4934012,55.0
1.6045789,19.901793,3.340836,80.0
1.5649271,28.15237,0.3794843,46.0
1.5238558,16.49748,0.07300338,110.0
2.3650117,16.401827,-0.5481013,8.0
3.0807981,22.37675,3.6217256,48.0
2.9114015,16.03823,-0.64678454,112.0
5.1092577,26.234074,4.0477376,7.0
2.561677,21.892914,4.680078,59.0
3.1595926,15.217024,-0.18952335,63.0
5.1734357,22.028193,4.3851867,128.0
5.265997,21.341545,-0.3128645,73.0
6.105271,20.725992,3.9870026,6.0
2.9121282,20.38477,2.1771786,1.0
4.770985,26.294344,2.683821,59.0
2.745095,21.43187,3.0160844,70.0
5.735127,26.223234,2.5639935,70.0
6.8913794,26.62849,2.4188657,1.0
5.46067,26.78569,3.560051,1.0
5.328471,21.906713,2.7521338,58.0
1.3739916,20.858725,0.97581834,77.0
2.9340289,28.165693,1.2119161,17.0
1.5959358,21.4629,5.9075866,81.0
1.0998477,21.210537,1.7211206,1.0
2.6209545,18.670103,0.6731228,1.0
4.217058,23.593512,0.73939264,132.0
3.4671528,27.699331,2.006914,44.0
3.420011,20.858088,1.3547399,46.0
4.662075,21.48943,0.56065685,98.0
3.5672815,17.67871,1.0392431,46.0
3.866205,16.088396,0.8476995,72.0
1.7123103,17.067242,-0.4939408,63.0
1.4759462,19.864286,3.3328364,51.0
0.8434652,16.948751,0.17350124,42.0
1.4182571,16.484816,0.0727234,32.0
2.8674023,21.837708,3.53066,52.0
2.8654213,16.367254,-0.65664476,67.0
4.1103554,21.853846,3.3620484,1.0
2.9791727,24.215801,0.08113699,1.0
2.4170315,21.844421,4.6662745,71.0
3.6346848,22.603405,-0.08530833,1.0
3.0380661,15.107133,-0.18908444,56.0
5.0301414,22.03921,4.3809695,51.0
4.0462885,16.871353,-0.27598634,35.0
2.8077319,20.57795,2.1970725,39.0
3.6331067,20.789865,2.090394,30.0
4.2606254,26.559725,3.6528277,65.0
5.545973,26.143883,2.5521731,79.0
5.2716227,26.714457,3.5455687,1.0
5.1531286,21.781496,2.7312741,142.0
2.769149,28.306835,1.2178204,1.0
2.4901724,18.585184,0.66873866,56.0
2.8664873,16.67557,0.481426,39.0
3.2750432,27.56808,1.9951144,30.0
3.7767422,23.956976,1.5748471,43.0
3.386698,16.073215,0.38392147,41.0
5.370185,21.574238,0.41769308,1.0
4.1839232,21.45067,1.288616,152.0
3.7732632,16.147354,0.8498405,109.0
0.9207318,16.371178,-0.38119256,109.0
1.556727,16.570068,-0.48335633,136.0
1.2735815,18.749813,3.142508,47.0
1.0168972,23.576687,0.29513177,59.0
1.3230429,16.597054,0.074046925,40.0
2.728193,21.839619,3.5281036,131.0
2.774578,16.455883,-0.65889144,97.0
3.9427874,21.713919,3.336384,1.0
2.8138487,24.120804,0.08011382,1.0
2.279732,21.859177,4.6662745,76.0
2.494965,16.200804,-0.100229345,37.0
3.526782,22.04606,4.539644,88.0
2.9699018,15.136986,-0.18913764,41.0
3.5481036,15.11704,-0.2614803,24.0
3.6493452,21.47529,2.1620252,1.0
3.5345461,22.73666,3.1045127,116.0
4.465541,18.099262,1.5947703,1.0
4.1040373,21.304358,2.7967746,47.0
2.1100202,22.714563,0.9494581,96.0
1.0565293,25.985323,2.138542,12.0
1.6656944,21.298136,1.6229548,1.0
2.37997,18.420319,0.6610879,73.0
3.180785,27.898258,2.0194793,34.0
4.400186,28.766176,1.9172676,60.0
3.2512429,15.797185,0.37445918,98.0
4.389131,18.00856,0.32531053,82.0
3.7020516,16.186357,0.8511489,78.0
0.8494984,16.493174,-0.3829435,35.0
0.19697653,21.105354,3.6439574,1.0
1.1766094,18.621784,3.119842,45.0
0.8710446,22.656025,0.27814385,78.0
1.2341799,16.46352,0.07226527,46.0
0.88001376,21.195349,4.660132,90.0
