x,y,z,intensity
-8.524469,2.4611528,1.5121166,1.0
-8.315745,1.8176646,1.4492841,1.0
-8.931745,2.2763333,0.98607093,1.0
-8.874539,2.2026331,0.9771059,9.0
-8.327261,1.6564255,1.4455073,1.0
-8.848149,2.1519563,0.9725023,1.0
-8.380083,2.0749273,1.425221,1.0
-8.8344345,2.0899818,0.96911013,1.0
-8.352717,2.0124378,1.4182211,1.0
-8.820291,2.0282645,0.965718,1.0
-8.347926,1.9558272,1.4152212,1.0
-8.815414,1.9689499,0.96353734,1.0
-8.3638935,1.9042221,1.4158878,1.0
-8.344901,1.844749,1.4105546,1.0
-8.613004,2.3560736,1.1647089,1.0
-8.323283,1.3452696,1.4352069,1.0
-8.3332,1.7872627,1.4065548,1.0
-8.826715,1.812001,0.96087205,1.0
-8.581936,2.3042657,1.1583507,1.0
-8.349003,1.3090373,1.4386404,1.0
-8.3260975,1.7447011,1.4038882,1.0
-8.806758,1.7503841,0.9569953,1.0
-8.659461,2.2666929,1.1678879,1.0
-8.376554,1.2594362,1.4420738,1.0
-8.327237,1.6903679,1.4022216,10.0
-8.81173,1.6939044,0.9562684,1.0
-8.571839,2.186548,1.1525706,8.0
-8.386252,1.2070563,1.4424171,48.0
-8.341561,1.638783,1.4028882,22.0
-8.423217,1.0075419,1.892017,15.0
-8.438446,2.1834135,1.3767157,59.0
-8.818295,1.6377894,0.9557838,1.0
-8.595017,2.1350102,1.1540155,1.0
-8.512778,1.1704293,1.4633613,19.0
-8.340075,1.5841036,1.4008883,19.0
-8.638737,0.9777983,1.9398491,1.0
-8.465407,2.1336968,1.3789523,67.0
-8.830365,1.5826963,0.9560261,1.0
-9.768834,2.358702,1.3282865,1.0
-8.496514,1.1139015,1.4592412,9.0
-8.3343525,1.5287869,1.3982217,9.0
-8.673807,0.92654014,1.9464926,1.0
-8.463298,2.0767372,1.3763961,67.0
-8.849921,1.5288502,0.9572376,1.0
-9.827795,2.3075917,1.3349336,86.0
-8.5229025,1.0628867,1.4626746,41.0
-8.339911,1.4756942,1.397555,18.0
-8.389716,2.0030918,1.3620173,76.0
-8.860945,1.4877777,0.9577222,1.0
-8.593436,2.2977498,1.1147767,1.0
-8.339003,1.4350207,1.3962218,9.0
-8.395215,1.9626443,1.3613782,70.0
-8.868156,1.4317617,0.9574799,1.0
-9.684461,2.1622195,1.3097901,1.0
-8.670907,2.2603395,1.1239898,1.0
-8.3400755,1.3812896,1.3948884,9.0
-8.281769,1.187265,1.8171105,41.0
-8.318771,1.8899481,1.3466799,66.0
-8.890716,1.3781112,0.95917594,1.0
-9.624326,2.0855534,1.2988079,148.0
-9.674814,2.4596179,1.2680482,8.0
-8.35443,1.3298044,1.3958884,18.0
-8.277461,1.1335881,1.8145177,12.0
-8.31505,1.8342772,1.3441237,52.0
-8.465726,2.3394701,1.3073964,16.0
-8.90902,1.3236591,0.96038747,1.0
-9.273133,2.0895174,0.9303552,22.0
-9.654677,2.028668,1.3014089,65.0
-9.6170635,2.3805485,1.2574391,1.0
-8.352877,1.2757739,1.3942218,9.0
-8.296034,1.0831023,1.8171105,26.0
-8.31289,1.7791363,1.341887,28.0
-8.464996,2.2820802,1.304981,1.0
-8.946653,1.2717808,0.9640219,1.0
-9.258884,2.025324,0.9272258,1.0
-9.616792,1.957806,1.2938948,126.0
-9.724201,2.3425267,1.2708399,1.0
-8.378283,1.225878,1.3972217,19.0
-8.362732,1.0385612,1.8305067,1.0
-8.364521,1.735195,1.348597,60.0
-8.654975,2.2754977,1.3327588,46.0
-8.995791,1.2210577,0.96911013,1.0
-9.248087,1.9622093,0.9245435,1.0
-9.81582,2.2996068,1.2820072,68.0
-8.395581,1.1746016,1.3988883,3.0
-8.427256,0.9929913,1.8434708,1.0
-8.63863,1.7348651,1.392053,71.0
-8.881566,2.276022,1.3662733,149.0
-9.216344,1.9102249,0.9198495,1.0
-8.755719,2.005499,1.1270608,82.0
-8.612248,0.9741021,1.8836595,1.0
-8.689353,1.7023903,1.3990827,55.0
-8.919023,2.2409475,1.3705003,74.0
-9.249086,1.1514695,0.99867034,1.0
-9.214519,1.8495712,0.91828483,1.0
-10.678885,1.9803118,1.4467793,1.0
-9.542954,2.1246414,1.2390131,158.0
-8.662326,2.2831495,1.0731001,1.0
-8.853088,0.9456023,1.9359479,1.0
-8.657183,1.6397754,1.392053,68.0
-8.879183,2.171593,1.3620462,122.0
-9.60125,1.1333345,1.0410724,1.0
-9.19668,1.7860187,0.91493195,1.0
-10.71645,1.9176601,1.4505363,1.0
-9.64512,2.0840633,1.2518555,86.0
-8.689945,2.2320988,1.0749774,1.0
-11.097363,0.77944833,1.9045621,1.0
-8.616799,1.5762293,1.3837452,76.0
-8.877274,2.1120656,1.3596308,105.0
-9.64173,1.0766612,1.0451914,1.0
-9.209674,1.7285618,0.9151555,1.0
-8.52969,1.475329,1.124826,1.0
-9.634774,2.0184996,1.2485054,126.0
-8.6730175,2.1698282,1.0706863,1.0
-8.783219,1.0193698,1.4605533,1.0
-8.6187525,1.5207034,1.3824672,75.0
-8.890368,2.0562468,1.3596308,101.0
-8.283474,1.2892683,1.7586964,1.0
-9.210571,1.6689115,0.9140378,1.0
-9.806697,2.1354198,0.92139536,1.0
-8.527074,1.419784,1.1230919,1.0
-9.651147,1.9587188,1.2490637,69.0
-8.773183,2.1361961,1.082755,37.0
-8.637874,1.468152,1.3840648,79.0
-8.88576,1.9964074,1.3569133,96.0
-8.295281,1.2377645,1.759533,1.0
-10.415268,1.0290941,1.1384757,8.0
-9.234586,1.6133717,0.9156025,1.0
-9.736278,2.0559201,0.9123627,1.0
-8.516277,1.3630974,1.1202018,1.0
-9.510034,2.2506926,1.1833273,53.0
-8.648876,1.4141642,1.3843843,81.0
-8.90006,1.940963,1.3572153,101.0
-8.299022,1.185076,1.7586964,1.0
-9.226404,1.5672085,0.9138143,1.0
-9.677709,1.9958159,0.90501046,1.0
-8.528475,1.3238473,1.1210688,1.0
-8.738189,2.0263028,1.0747092,31.0
-8.380406,1.3304045,1.3393308,56.0
-8.891713,1.8952528,1.3544979,83.0
-8.310328,1.1467427,1.7599514,1.0
-9.247843,1.5111042,0.9151555,1.0
-9.631569,1.9231653,0.8987086,1.0
-8.536625,1.2702355,1.1210688,1.0
-8.523364,1.5745356,1.0826707,1.0
-8.642418,1.9472129,1.0596905,1.0
-8.38079,1.2765524,1.3380526,63.0
-8.878286,1.8340913,1.3505728,139.0
-8.336765,1.0970098,1.7641343,1.0
-8.323612,1.5367801,1.6998001,3.0
-8.3233595,2.078663,1.6413848,1.0
-9.272867,1.4554002,0.91694367,1.0
-9.629798,1.8599422,0.89723814,1.0
-8.5136,1.5174301,1.0798789,1.0
-8.538254,1.8677315,1.0435989,1.0
-9.90979,0.8538712,1.647215,1.0
-8.382782,1.2230285,1.3370941,70.0
-8.872195,1.7747421,1.3478554,79.0
-8.382318,1.0493724,1.7725003,1.0
-8.30611,1.4795758,1.6941806,1.0
-10.283603,1.1128557,1.0652692,1.0
-8.455724,2.5363626,1.6088274,1.0
-9.291658,1.3985665,0.9180613,1.0
-9.60416,1.79239,0.89324695,1.0
-10.817392,1.8635571,1.4081979,1.0
-8.658445,1.8368309,1.0586177,37.0
-10.288394,0.82217264,1.7105466,1.0
-8.867649,1.715922,1.3454399,133.0
-8.44314,1.0030143,1.7842126,1.0
-8.326824,1.4293749,1.696589,1.0
-10.278536,1.0469891,1.0638818,1.0
-8.373444,2.4541981,1.589799,1.0
-9.329779,1.3443462,0.9214142,1.0
-9.650453,1.7384303,0.8970281,1.0
-10.838654,1.7971909,1.4095938,1.0
-8.658162,1.7800244,1.0570085,127.0
-10.733835,0.7908016,1.7852113,1.0
-8.878256,1.6601714,1.3454399,72.0
-8.517317,0.9574302,1.7988529,1.0
-8.316318,1.3737881,1.6925751,1.0
-8.46426,2.4233608,1.6044362,175.0
-9.363645,1.2891681,0.92432,1.0
-9.631802,1.6725953,0.89387715,1.0
-10.727045,1.3163977,1.438976,1.0
-10.88297,1.7344146,1.4143399,1.0
-8.67112,1.7259712,1.0572767,42.0
-11.139924,0.7511391,1.8532095,1.0
-8.85156,1.5975995,1.3397032,87.0
-8.873326,0.940191,1.8741462,1.0
-9.424795,1.2522403,0.9305787,1.0
-9.663102,1.6312097,0.8963979,1.0
-10.748857,1.267658,1.4412881,1.0
-8.558727,1.3182669,1.081554,1.0
-8.646474,1.0535331,1.375757,1.0
-8.85899,1.5558699,1.3397032,106.0
-9.093695,0.91973037,1.9205772,7.0
-8.332856,1.2825669,1.6929765,1.0
-9.653535,1.5672348,0.8942973,1.0
-9.676608,1.0816568,1.2826235,1.0
-8.559007,1.26329,1.0804373,1.0
-8.681779,1.6290808,1.056204,1.0
-8.796134,1.0153836,1.3990827,1.0
-8.837412,1.4948305,1.3348722,134.0
-9.5647335,0.90565217,2.02055,1.0
-8.323312,1.2275699,1.689364,1.0
-8.285416,1.7541537,1.619916,219.0
-9.680873,1.5093435,0.89618784,1.0
-9.67534,1.0200224,1.2814674,26.0
-8.617704,1.561246,1.0460126,1.0
-8.975099,0.9785379,1.4272012,1.0
-8.834926,1.4373428,1.3330607,70.0
-8.354134,1.1785898,1.6941806,1.0
-8.498274,1.7429975,1.6601701,254.0
-9.727528,1.4541517,0.900179,1.0
-10.646745,1.0528007,1.4230807,1.0
-8.687892,1.517501,1.0543265,86.0
-9.161798,0.9402716,1.4565978,1.0
-8.662184,1.3530064,1.304981,39.0
-8.374962,1.1279396,1.6969904,1.0
-8.509057,1.6895672,1.6601701,254.0
-9.764029,1.3970042,0.9031199,1.0
-10.639353,0.98463446,1.4210576,1.0
-8.687479,1.4612626,1.0529855,93.0
-9.377848,0.9024703,1.4907874,1.0
-8.445736,1.2643564,1.2702587,35.0
-8.403254,1.0780902,1.7014056,1.0
-9.823835,1.3427359,0.90858155,1.0
-10.649274,0.9180989,1.4216356,1.0
-9.061681,1.106719,1.1477203,1.0
-8.453513,1.2112657,1.2702587,8.0
-8.45847,1.0313145,1.7114404,1.0
-9.887222,1.3040864,0.9146733,1.0
-10.681101,0.8701025,1.4256817,1.0
-9.745204,1.1451498,1.2440383,1.0
-8.618797,1.3526354,1.0414534,19.0
-9.93615,0.8448513,1.579936,1.0
-8.542999,1.0009806,1.7278975,1.0
-8.270301,1.4947634,1.6072646,4.0
-9.626266,1.0696347,1.2261707,1.0
-8.619285,1.2972939,1.0403806,1.0
-10.309378,0.8106208,1.6396879,1.0
-8.265987,1.4404444,1.604581,1.0
-10.737699,0.7756109,1.7083867,1.0
-9.0828705,0.9499579,1.8366746,1.0
-8.274875,1.3884795,1.604581,1.0
-8.233126,1.8329132,1.5356414,18.0
-10.716802,1.0569457,1.3788837,1.0
-11.420135,0.75152177,1.8183045,1.0
-9.504176,1.1364781,1.4278675,1.0
-9.191983,0.90325296,1.8579483,19.0
-8.271804,1.3346121,1.6022807,1.0
-8.35205,1.8046582,1.5561335,146.0
-10.683798,0.98587537,1.3733001,1.0
-9.479704,1.0731144,1.4230367,1.0
-9.673444,0.8902911,1.9558878,1.0
-8.2800255,1.2826128,1.6022807,1.0
-8.378612,1.7554076,1.5590609,78.0
-10.626651,0.9131818,1.3643662,1.0
-10.4649105,1.3027661,1.2879224,1.0
-9.275958,0.9906082,1.3907298,1.0
-10.067254,0.8636004,2.0357647,1.0
-8.268501,1.2410004,1.5988305,199.0
-8.35791,1.7099246,1.553572,82.0
-10.634784,0.863423,1.3649246,1.0
-9.705251,1.1632774,1.1835954,1.0
-9.453568,0.9649225,1.4172999,1.0
-11.043598,0.89692074,2.2356575,1.0
-8.359712,1.2008237,1.6153154,140.0
-8.343427,1.6523511,1.5488149,91.0
-11.471308,0.8604175,1.4824605,1.0
-9.649336,1.0952542,1.1750133,1.0
-11.037293,0.82661504,2.2332492,1.0
-8.365147,1.1480125,1.6149321,39.0
-8.32662,1.594653,1.543692,60.0
-11.290789,0.775239,1.4562173,1.0
-9.642229,1.0331552,1.173136,1.0
-11.085268,0.7602779,2.2420797,1.0
-10.143795,0.84397596,1.5205609,1.0
-8.286022,1.4790387,1.5323482,3.0
-8.306773,1.4289753,1.5345438,1.0
-10.61177,0.9330895,1.3024049,1.0
-10.960104,0.774969,1.6440513,1.0
-8.295968,1.3868549,1.5312504,1.0
-9.652714,1.1456864,1.107525,31.0
-8.288994,1.3321692,1.5283229,1.0
-9.6380415,1.0825332,1.1047268,30.0
-9.096608,0.91337764,1.751413,1.0
-8.231154,1.2697088,1.5158813,1.0
-11.624837,0.8181238,1.4378421,1.0
-9.411009,0.88456273,1.8119859,1.0
-8.410077,1.243688,1.5480831,135.0
-9.850564,0.8625326,1.8970947,1.0
-8.425509,1.191942,1.5495468,50.0
-10.388036,0.84275776,2.0013723,1.0
-8.405561,1.1352301,1.5444238,120.0
-10.930203,0.8338592,2.1067998,1.0
-8.539462,1.1126785,1.5685751,219.0
-11.001812,0.7697017,2.1198347,44.0
-9.566392,0.8988604,1.7541014,1.0
-9.906732,0.868794,1.8166753,1.0
-10.34307,0.8424953,1.8971797,1.0
-10.879433,0.81845534,1.9963466,1.0
-11.20798,0.77299017,2.056725,1.0
