x,y,z,intensity
1.4132458,-5.403053,1.856472,1.0
1.1938823,-4.9479694,1.9853336,1.0
1.004187,-5.3560233,2.0884686,1.0
1.4421538,-5.409133,1.8609638,1.0
1.2154024,-4.902521,1.9698315,1.0
1.0423446,-5.373406,2.0979125,1.0
1.4573853,-5.332425,1.8372214,1.0
1.2359328,-4.8552,1.9535911,1.0
1.4939665,-5.334096,1.8410715,1.0
1.2678457,-4.852728,1.9558058,1.0
1.087894,-5.2521443,2.0550513,5.0
1.5237488,-5.3118715,1.8365797,1.0
1.2983111,-4.844666,1.9558058,1.0
1.0944804,-5.1193686,2.0049257,1.0
1.5479065,-5.2713284,1.825671,1.0
1.330724,-4.8435745,1.9587585,1.0
1.1215032,-5.088714,1.9954816,1.0
1.5638897,-5.2053237,1.8057785,1.0
1.3777225,-5.6192827,1.884448,1.0
1.3498902,-4.7957997,1.9425182,1.0
1.1437252,-5.0379167,1.9780467,1.0
1.6067023,-5.2279496,1.8173289,1.0
1.4116306,-5.604988,1.8825585,1.0
1.3761102,-4.8018785,1.9476856,1.0
1.1645553,-5.0197535,1.9729614,1.0
1.0037462,-5.3905983,2.375753,53.0
1.6307489,-5.2185144,1.8166872,1.0
1.4315066,-5.572511,1.8737404,1.0
1.3967041,-4.761071,1.934398,70.0
1.1913933,-4.992381,1.9649704,1.0
0.9916957,-5.1506677,2.2710495,159.0
1.660007,-5.197351,1.8128371,1.0
1.4617178,-5.5450344,1.8674418,1.0
1.424424,-4.745089,1.9314454,29.0
1.2157497,-4.955813,1.953347,1.0
1.6866862,-5.1688323,1.8064202,1.0
1.4896849,-5.510062,1.8586237,1.0
1.4481282,-4.7165246,1.9233252,14.0
1.240142,-4.9209456,1.94245,1.0
1.0315497,-5.019547,2.2178922,48.0
1.7197351,-5.159928,1.8070619,1.0
1.521774,-5.491438,1.8554745,1.0
1.4681457,-4.677223,1.9107759,1.0
1.2655228,-4.891386,1.9337326,1.0
1.0598927,-5.612129,2.1374643,28.0
1.0499141,-4.95213,2.1905084,70.0
1.7404002,-5.1149917,1.7948698,1.0
1.5485691,-5.4543495,1.8460265,1.0
1.5141838,-4.719166,1.9321835,1.0
1.2934064,-4.8725204,1.9293739,1.0
1.0582734,-5.4201994,2.0656226,12.0
1.0710555,-4.900764,2.170373,73.0
1.7737603,-5.1075296,1.7961532,1.0
1.5775753,-5.4262652,1.839728,1.0
1.5189012,-4.659033,1.9100376,35.0
1.3139566,-4.857368,1.9257416,1.0
1.0490601,-5.2448206,1.9994711,1.0
1.0847877,-4.8546085,2.1518486,78.0
1.8009921,-5.1080346,1.7993617,1.0
1.5988728,-5.4041934,1.834689,1.0
1.5416046,-4.630025,1.9019176,1.0
1.339544,-4.8310394,1.9184769,1.0
1.0939311,-5.294829,2.0215216,28.0
1.111509,-4.8316555,2.1446,84.0
1.8233345,-5.069917,1.7897363,1.0
1.6273625,-5.375853,1.8283905,1.0
1.5761157,-4.6360636,1.9085613,67.0
1.3718793,-4.8297057,1.9213828,1.0
1.1129011,-5.2220907,1.9959146,18.0
1.130693,-4.778304,2.1236591,86.0
1.8446103,-5.0299454,1.7794693,1.0
1.6588885,-5.3582606,1.825871,1.0
1.6132299,-4.6488647,1.9181578,122.0
1.3950138,-4.795912,1.9112123,1.0
1.1371213,-5.1766877,1.9809772,10.0
1.1545321,-4.746228,2.1123834,80.0
0.9946338,-5.2775574,2.277611,49.0
1.8915899,-5.059007,1.7942281,1.0
1.6959196,-5.3586025,1.8296502,1.0
1.6355035,-4.6193914,1.9100376,95.0
1.4214488,-4.7745357,1.9061271,1.0
1.1620739,-5.136653,1.9681737,19.0
1.1748542,-4.7016225,2.0954697,88.0
1.9035839,-4.995764,1.7756191,1.0
1.7139603,-5.2990193,1.812644,1.0
1.6683272,-4.619498,1.9144669,109.0
1.4492774,-4.7583714,1.9032212,1.0
1.1857066,-5.092872,1.9539475,10.0
1.2039095,-4.6923766,2.0946643,96.0
1.0231367,-5.0736403,2.1937172,42.0
1.9397815,-4.996047,1.780111,1.0
1.7501657,-5.2971683,1.8157933,1.0
1.6861964,-4.601129,1.9100376,87.0
1.4667883,-4.735449,1.8966831,1.0
1.2031004,-5.0599756,1.943278,19.0
1.2151816,-4.645962,2.0761397,92.0
1.0306321,-4.987753,2.158102,25.0
1.9429857,-4.9358125,1.7615019,1.0
1.7709265,-5.27625,1.8113842,1.0
1.7209927,-4.60609,1.9166814,98.0
1.4992889,-4.735033,1.9003154,1.0
1.2303603,-5.0341763,1.936165,10.0
1.0832458,-5.715023,2.1243336,14.0
1.2453125,-4.6417675,2.0777507,115.0
1.0529314,-4.93803,2.1391072,55.0
1.9867694,-4.9551063,1.7730523,1.0
1.7973468,-5.2452407,1.8044558,1.0
1.7492307,-4.593452,1.9159433,95.0
1.5250455,-4.713093,1.8952302,1.0
1.2545696,-4.9973674,1.9247841,20.0
1.0776808,-5.492694,2.0428715,1.0
1.2710023,-4.62151,2.0721128,90.0
1.0742599,-4.8864293,2.1193209,50.0
2.3021488,-6.047722,1.8033994,9.0
2.0099146,-4.923264,1.7659938,1.0
1.832128,-5.239227,1.8063453,1.0
1.782135,-4.592751,1.9203724,87.0
1.5494307,-4.687473,1.888692,53.0
1.2788391,-4.9622626,1.9141145,10.0
1.0924151,-5.386516,2.0052736,1.0
1.2979989,-4.6063933,2.068891,85.0
1.0969737,-4.843723,2.103492,62.0
2.0437431,-4.917524,1.7685605,1.0
1.861223,-5.216871,1.8025662,1.0
1.8123375,-4.5849147,1.9218488,78.0
1.5812068,-4.6847167,1.8915979,27.0
1.3056273,-4.937883,1.9077127,41.0
1.1175576,-5.337306,1.9892597,1.0
1.3248557,-4.59112,2.0656695,168.0
1.1236992,-4.8206205,2.0963688,48.0
2.3572977,-5.966491,1.7875503,1.0
1.890752,-5.1961427,1.7994169,1.0
1.8418107,-4.575158,1.922587,79.0
1.6040131,-4.655283,1.8836069,7.0
1.335138,-4.9241757,1.9055789,42.0
1.1436809,-5.2953305,1.9760308,1.0
1.3615673,-4.6090064,2.0777507,185.0
1.1628038,-4.8510103,2.1129894,38.0
2.404873,-5.9765177,1.7952017,1.0
1.9266315,-5.1930704,1.8025662,1.0
1.8732811,-4.5904818,1.9329218,101.0
1.6307971,-4.6617637,1.8894185,1.0
1.3537842,-4.9016314,1.8991771,41.0
1.160273,-5.2514052,1.9614094,1.0
1.3859432,-4.611294,2.0817776,175.0
1.1980996,-4.897267,2.1359413,42.0
1.9358529,-5.143017,1.7880794,1.0
1.9020867,-4.578621,1.9329218,55.0
1.6581981,-4.6461525,1.8872391,1.0
1.3840389,-4.891232,1.8984658,42.0
1.1879274,-5.220225,1.9523581,1.0
1.409436,-4.585019,2.0737236,201.0
1.2257628,-4.8771605,2.1304011,40.0
1.9634161,-5.118328,1.7836704,1.0
1.933741,-4.5734158,1.9358745,91.0
1.6917689,-4.6479173,1.8923243,32.0
1.4105246,-4.868093,1.8927753,48.0
1.2156566,-5.1907325,1.944003,1.0
1.440998,-4.5847936,2.0777507,202.0
1.2532207,-4.8569,2.124861,121.0
0.9901125,-5.33473,2.232308,185.0
2.0003273,-5.1182847,1.7880794,1.0
1.964663,-4.566289,1.9380891,63.0
1.7241447,-4.645944,1.8959566,100.0
1.4367744,-4.844815,1.8870848,44.0
1.2383101,-5.14103,1.9279891,1.0
1.4692092,-4.5739083,2.0769453,211.0
1.286027,-4.8578176,2.1288183,32.0
2.1865897,-4.7683053,1.7416096,1.0
2.0241005,-5.0844207,1.780521,1.0
2.0053518,-4.58105,1.9499002,100.0
1.7533017,-4.6350193,1.8959566,128.0
1.4660869,-4.8321185,1.8856623,13.0
1.2661526,-5.114931,1.9210265,1.0
1.499075,-4.568061,2.078556,211.0
1.3169979,-4.851416,2.1296098,66.0
1.0167814,-5.122934,2.1474407,40.0
2.0842714,-5.142075,1.8057154,1.0
2.0302808,-4.559885,1.9462092,66.0
1.7790743,-4.6152043,1.8923243,93.0
1.492491,-4.8103304,1.8806832,40.0
1.2932613,-5.0868673,1.9133676,1.0
1.5242128,-4.548152,2.0737236,199.0
1.3392063,-4.8129296,2.1161551,95.0
1.0353551,-5.051423,2.119666,63.0
2.1057734,-5.1025176,1.7962676,1.0
2.0617685,-4.5722547,1.9558058,73.0
1.8068446,-4.622414,1.8988625,104.0
1.5117254,-4.7925615,1.8764153,23.0
1.3088753,-5.0480156,1.900835,1.0
1.5474203,-4.5461106,2.0761397,200.0
1.3144952,-4.6367226,2.040176,76.0
1.0483361,-4.9959664,2.0980635,52.0
2.3760853,-6.0835376,1.7684774,1.0
2.1196318,-5.0679827,1.7874496,1.0
2.0935822,-4.5659556,1.9587585,73.0
1.8365344,-4.6127043,1.899589,88.0
1.5371624,-4.7687545,1.8707248,23.0
1.3386673,-5.0324373,1.89805,1.0
1.5753454,-4.534571,2.0753343,206.0
1.3451164,-4.63367,2.0425503,99.0
1.1240275,-5.7054915,2.0589948,17.0
1.072154,-4.955045,2.0834048,76.0
2.1256394,-4.993338,1.7654045,1.0
2.1293588,-4.5678453,1.9654022,75.0
1.8634012,-4.595885,1.8974096,94.0
1.5688703,-4.7643213,1.8728588,22.0
1.3644251,-5.002198,1.8896949,1.0
1.6069003,-4.533198,2.0793614,205.0
1.3726567,-4.619838,2.040176,123.0
1.1216788,-5.5140643,1.9912169,5.0
1.1053101,-4.9572077,2.0872624,126.0
2.152484,-4.9694157,1.7616253,1.0
2.9310632,-5.940879,1.4699429,33.0
2.15882,-4.5560527,1.9661405,73.0
1.8929449,-4.5858116,1.898136,86.0
1.5939505,-4.7402153,1.8671683,23.0
1.3898559,-4.9718347,1.8813398,1.0
1.6347216,-4.521293,2.078556,201.0
1.3990229,-4.6023245,2.0362186,201.0
1.1401763,-5.431464,1.963428,1.0
1.1330745,-4.935791,2.0810902,184.0
2.7538025,-5.815467,1.7930155,1.0
2.3239412,-4.620346,1.7165836,1.0
2.1737995,-4.933174,1.753437,1.0
2.9437137,-5.8736,1.4575421,3.0
2.188217,-4.54407,1.9668787,65.0
1.9317274,-4.5979195,1.9083065,90.0
1.6261588,-4.737169,1.8700136,23.0
1.4251392,-4.97744,1.8869098,1.0
1.667581,-4.5229373,2.084194,162.0
1.4327526,-4.6092496,2.0433416,198.0
1.1633489,-5.3745785,1.945128,1.0
1.1679466,-4.9447207,2.088034,71.0
0.9932595,-5.444777,2.2209427,154.0
2.7944865,-5.8067045,1.7957481,1.0
2.3867939,-4.671309,1.7416096,58.0
2.9342709,-5.76475,1.4345118,1.0
2.2175484,-4.5318975,1.9676168,67.0
1.9540488,-4.5702443,1.9017683,91.0
1.6483891,-4.705719,1.8614779,23.0
1.4506614,-4.9485736,1.879251,1.0
1.4561967,-4.5826283,2.035427,199.0
1.1920983,-5.345143,1.9369947,1.0
1.1927954,-4.912206,2.0772326,131.0
2.4108236,-4.646152,1.7377595,76.0
2.9415998,-5.690849,1.4203393,1.0
2.25015,-4.5261803,1.9713079,60.0
1.9900888,-4.574994,1.909033,80.0
1.6753784,-4.688238,1.8586327,46.0
1.4710927,-4.9034023,1.8653259,1.0
1.7514277,-4.571603,2.1172159,46.0
1.4872005,-4.5803857,2.038593,194.0
1.2162446,-5.2972355,1.9220835,1.0
1.22999,-4.9296536,2.088034,51.0
2.9526765,-5.6257052,1.4083812,1.0
2.276506,-4.52547,1.975737,71.0
2.0116258,-4.565565,1.909033,82.0
1.6987416,-4.6838007,1.8600553,46.0
1.4963435,-4.903597,1.8681109,1.0
1.769601,-4.5547805,2.1131887,61.0
1.5116088,-4.58206,2.0425503,195.0
1.2342087,-5.2621603,1.911239,1.0
1.2296301,-4.832699,2.0486863,38.0
1.0393338,-5.183304,2.1197383,1.0
2.8074436,-5.585938,1.7410958,1.0
2.2806244,-4.8616533,1.7465086,1.0
2.977314,-5.6082892,1.4074955,1.0
2.3083045,-4.517684,1.9786898,37.0
2.0478232,-4.5698714,1.9162976,82.0
1.7268261,-4.6695337,1.8586327,59.0
1.5276753,-4.8958907,1.8688072,1.0
1.7975036,-4.5418725,2.1123834,67.0
1.5421059,-4.577701,2.0449245,200.0
1.2632147,-5.237854,1.9051391,1.0
1.2628114,-4.835578,2.0533154,105.0
1.0637735,-5.136744,2.1031225,1.0
2.8468869,-5.5767417,1.7438284,1.0
2.3030212,-4.8300624,1.74021,1.0
2.9808452,-5.5311995,1.3924372,1.0
2.3616633,-4.550838,2.0000973,78.0
2.0810905,-4.5671067,1.9206563,75.0
1.7581308,-4.6638308,1.8607665,82.0
1.5533432,-4.870099,1.8625408,1.0
1.8273882,-4.533879,2.1139941,45.0
1.5720178,-4.5714,2.0465076,205.0
1.2901262,-5.206093,1.896328,1.0
1.2985008,-4.8471327,2.0618021,35.0
1.068294,-4.997644,2.0479887,1.0
2.8863254,-5.56727,1.746561,1.0
2.316078,-4.7795577,1.726983,1.0
2.9948254,-5.474785,1.3826936,1.0
2.119839,-4.575962,1.9301003,86.0
1.7833349,-4.642239,1.8564987,37.0
1.5810428,-4.8513184,1.8590596,1.0
1.8572432,-4.525689,2.1156049,71.0
1.6025121,-4.56664,2.0488818,205.0
1.3185725,-5.1814885,1.8902279,1.0
1.3309139,-4.845988,2.0648882,55.0
1.0934132,-4.9618716,2.0359046,1.0
3.0139287,-5.428627,1.3756074,1.0
2.4195464,-4.5224376,2.0008357,52.0
2.1461873,-4.5574856,1.9279209,83.0
1.8152211,-4.637894,1.859344,25.0
1.6126633,-4.844851,1.860452,1.0
1.8884928,-4.520675,2.1188266,75.0
1.6305616,-4.554749,2.0480905,201.0
1.3438662,-5.14582,1.8800613,1.0
1.1614697,-5.6153474,1.9683255,1.0
1.3557583,-4.8180137,2.0564015,74.0
1.122152,-4.944058,2.031373,27.0
3.0393114,-5.3943186,1.3716214,1.0
2.4595306,-4.5283346,2.010432,43.0
2.1811616,-4.557383,1.9337326,76.0
1.8436265,-4.6246634,1.8586327,61.0
1.63711,-4.8168473,1.8534895,1.0
1.9255384,-4.528901,2.1284916,60.0
1.6622609,-4.553054,2.0520477,196.0
1.3697518,-5.113671,1.8712502,1.0
1.1843294,-5.548808,1.9472125,1.0
1.339887,-4.651786,1.9877363,111.0
1.151538,-4.9296894,2.028352,74.0
3.169811,-5.839351,1.8525865,1.0
3.0702238,-5.3700457,1.3702928,1.0
2.4754348,-4.50694,2.006003,13.0
2.215503,-4.5739384,1.9453559,76.0
1.8675215,-4.6211147,1.8607665,61.0
1.6597906,-4.809079,1.8534895,1.0
1.9402785,-4.5046725,2.1212428,63.0
1.6843289,-4.5468955,2.052839,185.0
1.3918245,-5.0999055,1.868539,1.0
1.2029368,-5.5080914,1.9346765,1.0
1.3849593,-4.7232337,2.0216832,219.0
1.1789808,-4.942239,2.0359046,159.0
3.197293,-5.824349,1.8525865,1.0
2.7592604,-5.6976275,1.713119,1.0
2.5485332,-4.393382,1.6851408,1.0
2.3901422,-4.6492357,1.699269,1.0
2.4664245,-6.0598326,1.7185096,1.0
3.100403,-5.3639445,1.3725072,1.0
2.5237563,-4.5269365,2.0222433,35.0
2.2482786,-4.5683036,1.9489882,73.0
1.89221,-4.5989356,1.8564987,115.0
1.6856638,-4.786159,1.8486156,1.0
1.9767022,-4.5108027,2.1301024,76.0
1.7109395,-4.5310597,2.0504646,133.0
1.4161339,-5.0639076,1.8583723,1.0
1.2256957,-5.446964,1.9155427,1.0
1.3866532,-4.622651,1.9815642,118.0
3.2159364,-5.7722673,1.8422027,1.0
2.5548067,-4.3414516,1.6710237,1.0
2.4341297,-4.662791,1.7099767,101.0
3.1161864,-5.3141336,1.3645352,1.0
2.553993,-4.514219,2.0237195,13.0
2.2827241,-4.565777,1.9540734,69.0
1.9305471,-4.609331,1.8657457,111.0
1.7188369,-4.7843084,1.852097,1.0
2.0102706,-4.509977,2.1357403,36.0
1.7419847,-4.5270877,2.0536306,48.0
1.4442472,-5.0422616,1.8536279,1.0
1.2527666,-5.40786,1.9043263,1.0
1.4206088,-4.6297026,1.9885079,174.0
1.2343152,-4.900069,2.0245757,35.0
3.2388124,-5.7285423,1.8345513,13.0
3.2516286,-5.436769,2.1105812,1.0
2.4598486,-4.640682,1.7074573,36.0
1.87689,-5.9386644,1.8560518,1.0
3.133472,-5.267683,1.3574489,1.0
3.0486035,-5.784476,1.4126314,1.0
2.5953507,-4.5206,2.0340543,36.0
2.3113663,-4.5513444,1.9540734,67.0
1.9572502,-4.5919604,1.8636118,111.0
1.7412082,-4.752258,1.8437419,1.0
2.051533,-4.525549,2.1494322,58.0
1.4726812,-5.0222664,1.8495612,1.0
1.2793947,-5.3686323,1.89311,1.0
1.4479905,-4.615411,1.9861933,182.0
1.2545811,-4.850937,2.0072048,77.0
2.70589,-4.7235966,1.511556,1.0
3.2985644,-5.4372444,2.1189232,1.0
1.9094136,-5.9122014,1.8514032,1.0
3.1594157,-5.236225,1.3543487,1.0
3.0729809,-5.742787,1.4070137,1.0
2.624645,-4.505806,2.0347924,12.0
2.350936,-4.558305,1.9635174,113.0
1.9973241,-4.60525,1.8742814,92.0
1.77298,-4.746501,1.8458307,1.0
2.1464138,-4.655278,2.2186978,98.0
1.8411932,-4.612484,2.103492,41.0
1.4987297,-4.9949126,1.8427835,1.0
1.306907,-5.334791,1.883873,1.0
1.477532,-4.6079764,1.9869648,205.0
1.301872,-4.9074664,2.034394,44.0
2.718975,-4.678287,1.5022652,1.0
3.3526187,-5.4486146,2.131757,40.0
1.9362291,-5.8692255,1.841525,1.0
3.1768997,-5.1913686,1.3477054,1.0
3.0812004,-5.6718006,1.3940495,1.0
2.6671822,-4.5131745,2.0458655,38.0
2.3726661,-4.5302105,1.9577057,42.0
2.02089,-4.58066,1.8693023,106.0
1.7994677,-4.726493,1.8423494,1.0
2.2202816,-4.7360077,2.2646062,75.0
1.8632911,-4.583781,2.0955775,36.0
1.5272884,-4.976414,1.8393946,1.0
1.332229,-5.293487,1.8719969,1.0
1.5064554,-4.598602,1.9869648,204.0
1.3240598,-4.866989,2.0207994,58.0
2.7640498,-4.6875677,1.5110096,68.0
3.3686445,-5.398573,2.1202066,15.0
1.9625806,-5.8261476,1.8316467,1.0
3.216693,-5.182881,1.3508056,1.0
3.0999007,-5.6214952,1.3862711,1.0
2.687461,-4.4989634,2.0451272,12.0
2.3983166,-4.52723,1.961338,60.0
2.0493786,-4.586417,1.875704,86.0
1.822389,-4.7197123,1.8430456,1.0
2.1887662,-4.6132374,2.2098382,52.0
1.8904124,-4.5885587,2.101909,21.0
1.5484519,-4.9619856,1.8366834,1.0
1.3557713,-5.2816586,1.8700175,1.0
1.5322393,-4.60369,1.9923655,199.0
1.3601389,-4.908935,2.0411913,86.0
1.9843847,-5.8005567,1.826417,1.0
3.230663,-5.151177,1.3463767,1.0
3.1093361,-5.5760713,1.3784927,1.0
2.7321553,-4.5089507,2.0576766,35.0
2.4407322,-4.538385,1.9729614,62.0
2.0797157,-4.5768476,1.8771266,98.0
1.8492905,-4.701179,1.8402606,1.0
2.160791,-4.4825425,2.152654,135.0
1.9248327,-4.590164,2.1082406,20.0
1.5824924,-4.9611106,1.8400723,1.0
1.3813444,-5.2437954,1.859461,1.0
1.5593318,-4.588738,1.9900509,195.0
1.3301295,-4.6827006,1.94905,35.0
2.0144231,-5.7699275,1.8206062,1.0
3.2703297,-5.1422725,1.3494769,1.0
3.141441,-5.551317,1.3771962,1.0
2.7623904,-4.494855,2.0591528,12.0
2.474518,-4.5327945,1.9773202,47.0
2.110804,-4.5687714,1.8792605,96.0
1.8815533,-4.6964397,1.8430456,1.0
2.1970327,-4.485285,2.160708,75.0
1.9579194,-4.588133,2.1129894,9.0
1.6148126,-4.9546432,1.8414279,1.0
1.4113512,-5.2240653,1.8555022,1.0
1.5918044,-4.5892944,1.99468,194.0
1.3651328,-4.693835,1.9573578,87.0
3.3313062,-5.426184,1.7738872,1.0
2.0428593,-5.735549,1.8136333,1.0
3.2845137,-5.093818,1.3419478,1.0
3.153051,-5.4907527,1.366825,1.0
2.7984917,-4.489999,2.0650585,36.0
2.510123,-4.530225,1.9831319,55.0
2.143476,-4.563862,1.882817,94.0
1.9152317,-4.6949577,1.8472232,1.0
2.2243488,-4.469756,2.1599026,107.0
2.01352,-4.6381874,2.142273,19.0
1.6332847,-4.906956,1.8271946,1.0
1.4396738,-5.1987014,1.8495642,1.0
1.6206082,-4.5792027,1.99468,197.0
1.3878256,-4.662062,1.9475394,42.0
3.397018,-5.455674,1.7908294,49.0
3.2511768,-5.87019,1.8179806,1.0
3.214743,-5.497524,2.0778153,1.0
2.0781968,-5.7208037,1.8130523,1.0
3.3057275,-5.056792,1.3375189,1.0
3.1757565,-5.4505486,1.3616394,1.0
2.8316433,-4.480164,2.0687494,11.0
2.5503278,-4.5355253,1.9925758,45.0
2.1842897,-4.5755587,1.8934866,91.0
1.9397082,-4.6706905,1.8423494,1.0
2.268207,-4.4866695,2.1752055,100.0
2.1014402,-4.7600985,2.205589,18.0
1.6622462,-4.8912597,1.8251612,1.0
1.4702756,-5.18228,1.846925,1.0
1.6544183,-4.582793,2.000852,198.0
1.4202833,-4.663893,1.952071,66.0
3.5179417,-5.5705953,1.8367374,36.0
3.2710845,-5.819345,1.8083994,1.0
3.0427895,-4.572039,1.8250293,1.0
3.249221,-5.4772167,2.0778153,1.0
2.9648778,-5.8308244,2.0836487,1.0
2.1415992,-5.7811193,1.8368764,1.0
3.352595,-5.058631,1.3437194,1.0
3.2158697,-5.440593,1.3642322,1.0
2.8748713,-4.485701,2.0798223,43.0
2.5815263,-4.5242777,1.9947551,25.0
2.212173,-4.5600657,1.8927753,82.0
1.9784156,-4.6808996,1.8514007,1.0
2.3014092,-4.4820805,2.180038,94.0
2.1581552,-4.807227,2.2340813,68.0
1.6941931,-4.8842697,1.8265167,1.0
1.4950095,-5.1457143,1.8370283,1.0
1.68318,-4.5723076,2.000852,197.0
1.4506456,-4.658418,1.9535815,42.0
3.5528731,-5.5483813,1.8367374,18.0
3.3037834,-5.7919674,1.8062702,1.0
3.0671954,-4.546565,1.8224624,1.0
3.2972004,-5.4795074,2.0866332,1.0
2.564202,-6.03926,1.6627543,84.0
2.158104,-5.7156944,1.8200252,1.0
3.3537076,-4.992239,1.3313184,1.0
3.237006,-5.3984656,1.3586144,1.0
2.915287,-4.501674,2.093848,43.0
2.6166897,-4.5363283,2.0056522,52.0
2.2394507,-4.5613127,1.8977544,84.0
1.9872911,-4.640448,1.8388681,6.0
2.3378124,-4.500366,2.1945353,85.0
2.1724942,-4.7785788,2.2253752,94.0
1.7127669,-4.8638253,1.8217723,1.0
1.5171278,-5.1313615,1.8343891,1.0
1.7047077,-4.5643253,2.000852,192.0
1.4598955,-4.6108694,1.9362105,7.0
3.5306764,-5.4574237,1.8115973,10.0
3.1154006,-4.571095,1.8385047,1.0
3.3249478,-5.467159,2.087893,50.0
2.4217463,-4.6445565,1.6614683,1.0
3.3959067,-5.0037513,1.3388475,1.0
3.2553627,-5.3714385,1.3555895,1.0
2.9496706,-4.492568,2.0982773,40.0
2.6442053,-4.5181856,2.0049257,44.0
2.2731118,-4.557168,1.9020222,85.0
2.0282803,-4.6554193,1.8500082,1.0
2.3669033,-4.4872046,2.1953406,148.0
2.0855544,-4.5092916,2.1042833,74.0
1.7407207,-4.8458943,1.8190612,1.0
1.5439409,-5.103636,1.8277912,1.0
1.7366706,-4.562133,2.0047097,189.0
1.4832107,-4.583962,1.928658,1.0
3.569137,-5.441554,1.8137834,66.0
2.7987733,-4.7767916,1.4938143,1.0
3.1364834,-4.540548,1.8340129,9.0
3.380052,-5.480154,2.10112,25.0
2.4643326,-4.65442,1.6707131,1.0
2.171008,-5.5652046,1.7787689,1.0
3.4306111,-4.987125,1.3401762,1.0
3.2829447,-5.340877,1.3529966,1.0
2.9913046,-4.494011,2.1078737,19.0
2.6867175,-4.5255723,2.0158224,12.0
2.299146,-4.5378036,1.8998884,80.0
2.0424352,-4.608241,1.836083,13.0
2.405499,-4.491568,2.2050056,81.0
2.1122963,-4.4927683,2.1027005,90.0
1.7613207,-4.808398,1.8088945,1.0
1.5710169,-5.077582,1.8218532,1.0
1.7592309,-4.535673,1.9977661,180.0
1.4500186,-4.3843865,1.8470901,1.0
3.600046,-5.414225,1.8121438,42.0
2.819921,-4.7441645,1.4890237,1.0
3.1791477,-4.540872,1.8423549,9.0
3.3913827,-5.4217205,2.0866332,39.0
2.6540904,-5.9621696,1.6537377,1.0
2.4935284,-4.6388445,1.6707131,10.0
3.4562743,-4.9574904,1.3379618,1.0
3.309244,-5.3085213,1.3499717,1.0
3.033073,-4.495107,2.1174703,11.0
2.721785,-4.5198016,2.0209076,41.0
2.341403,-4.5498066,1.9112693,89.0
2.0950193,-4.648401,1.8576671,53.0
2.4336727,-4.4763656,2.2050056,104.0
2.1538305,-4.5076356,2.1161551,74.0
1.7914978,-4.797236,1.8088945,1.0
1.604014,-5.0712156,1.8231727,1.0
1.7966022,-4.5468025,2.0077958,166.0
1.5553159,-4.608891,1.9475394,181.0
4.0034466,-5.9359474,1.9990548,40.0
2.8496737,-4.726353,1.4890237,1.0
3.2142267,-4.5300527,1.846205,14.0
3.4365094,-5.417973,2.0935616,20.0
2.6796036,-5.91888,1.6462239,1.0
3.4873548,-4.9356766,1.3379618,1.0
3.3518753,-5.30251,1.3538609,1.0
3.0602014,-4.474431,2.1167321,39.0
2.751095,-4.504205,2.021634,11.0
2.378667,-4.5515375,1.9183823,141.0
2.1133444,-4.61124,1.8479195,77.0
2.4653137,-4.467383,2.2082274,69.0
2.1813145,-4.492358,2.1153636,83.0
1.8202515,-4.7823734,1.807539,1.0
1.6312551,-5.046647,1.8178945,1.0
1.8223511,-4.528589,2.0047097,142.0
1.5866268,-4.6060414,1.9505605,166.0
4.0919056,-5.9851775,2.0247414,16.0
3.2504065,-4.5205054,1.8506968,1.0
3.4960263,-5.4362693,2.1093082,22.0
2.0853832,-5.921816,1.8049928,1.0
3.5228605,-4.9199953,1.3397334,1.0
3.3714962,-5.259928,1.3482431,1.0
3.1106126,-4.487112,2.132234,18.0
2.7998195,-4.520176,2.0368898,45.0
2.4116316,-4.5447407,1.9219389,42.0
2.1454158,-4.604681,1.8507044,45.0
2.4987397,-4.4613667,2.21306,95.0
2.217557,-4.495069,2.1232781,74.0
1.8433905,-4.753326,1.8007612,1.0
1.657666,-5.0201426,1.8119564,1.0
1.8451154,-4.503413,1.9985377,115.0
1.6143222,-4.592482,1.94905,147.0
3.3258305,-4.564123,1.8776478,1.0
3.4300344,-5.2596407,2.0482118,10.0
3.1343377,-5.567474,2.034343,1.0
2.1810637,-6.073157,1.8561777,1.0
3.5560055,-4.900913,1.3406191,1.0
3.4002435,-5.2320776,1.3465146,1.0
3.2936833,-5.831469,1.398125,1.0
3.1467288,-4.4936643,2.1425688,11.0
2.8309155,-4.5227647,2.0441544,44.0
2.43035,-4.528395,1.9198049,67.0
2.1805723,-4.6234016,1.8625408,69.0
2.5297282,-4.4670253,2.2219193,91.0
2.2492926,-4.5059757,2.133567,87.0
1.8657694,-4.7445865,1.8007612,1.0
1.677743,-5.001521,1.8079977,1.0
1.8748933,-4.5150824,2.0077958,94.0
1.6414814,-4.600545,1.9558473,138.0
3.5039737,-5.011722,1.7022927,7.0
3.540564,-5.657158,1.8078672,1.0
3.4017801,-5.162407,2.016089,1.0
3.1586459,-5.5493407,2.0331101,1.0
3.570954,-4.8731165,1.3375189,1.0
3.4163294,-5.2029095,1.3430575,1.0
3.289927,-5.76163,1.3847395,1.0
3.188959,-4.4934587,2.1521654,44.0
2.8662245,-4.515928,2.0492396,42.0
2.4695637,-4.53269,1.9283406,86.0
2.208775,-4.6079154,1.8618445,70.0
2.5660107,-4.465295,2.229168,83.0
2.2882724,-4.513094,2.1438558,104.0
1.8976632,-4.7380013,1.8027945,1.0
1.706716,-4.983727,1.8053585,1.0
1.9097538,-4.5184827,2.0147395,107.0
1.673485,-4.598855,1.9596236,131.0
3.5096917,-4.9535875,1.6897227,1.0
3.5544498,-5.600552,1.7966889,1.0
3.3724003,-4.522735,1.8757228,1.0
3.4372966,-5.145677,2.0179784,1.0
3.1848395,-5.5145836,2.0275633,36.0
2.2059484,-5.935334,1.820742,1.0
3.6190212,-4.874013,1.3441622,1.0
3.451106,-5.1846,1.3439218,1.0
3.223674,-4.482363,2.1565945,46.0
2.9025617,-4.510396,2.0550513,40.0
2.4970837,-4.515452,1.9276292,77.0
2.2401266,-4.599013,1.8639333,62.0
2.5958726,-4.45224,2.230779,95.0
2.3140807,-4.4937186,2.1414816,86.0
1.9245253,-4.719027,1.8000834,1.0
1.7336836,-4.960412,1.80074,1.0
1.9395784,-4.509778,2.0162826,94.0
1.7010733,-4.5847716,1.9581131,123.0
3.5328555,-4.920525,1.685897,1.0
3.5646498,-5.539123,1.783914,1.0
3.4122236,-4.5165296,1.8821397,1.0
3.428254,-5.062542,1.9934139,1.0
3.2281299,-5.5092106,2.0331101,17.0
3.6519294,-4.854287,1.3450481,1.0
3.4825265,-5.1611915,1.3434896,1.0
3.2660773,-4.481496,2.166191,44.0
2.9440036,-4.512408,2.0644953,19.0
2.5373821,-4.520817,1.9368763,72.0
2.2788777,-4.605051,1.8722885,67.0
2.6444361,-4.470425,2.248498,82.0
2.3540938,-4.5019245,2.152562,98.0
1.9526807,-4.7033715,1.7987279,9.0
1.7729703,-4.9725714,1.8093172,1.0
1.969369,-4.5008774,2.0178256,103.0
1.7304944,-4.575728,1.9588683,111.0
3.5273159,-4.84857,1.6684083,1.0
3.588898,-5.500438,1.778591,1.0
3.4382207,-4.4920006,1.8808563,1.0
3.2626812,-5.488819,2.0331101,13.0
3.6894822,-4.840529,1.3477054,1.0
3.5258574,-5.1553626,1.347811,1.0
3.3019383,-4.471325,2.1713583,42.0
2.9733198,-4.495379,2.0652218,9.0
2.5722573,-4.516129,1.9418554,82.0
2.3060958,-4.587285,1.870896,37.0
2.6696281,-4.4490232,2.2460816,89.0
2.379769,-4.4821677,2.1501875,91.0
1.9799762,-4.685819,1.7966945,20.0
1.7894955,-4.9204664,1.7941421,1.0
2.001396,-4.496828,2.0216832,98.0
1.7644804,-4.578611,1.9649104,94.0
3.4762878,-4.716636,1.629605,4.0
3.6329148,-5.492281,1.7833817,1.0
3.4990287,-4.5121064,1.8988236,28.0
3.333207,-5.8198075,1.7625124,1.0
3.312906,-5.494231,2.0429714,39.0
2.516971,-4.6993594,1.6398154,1.0
3.7174287,-4.8141723,1.3468196,1.0
3.3433952,-4.4683003,2.1802168,38.0
3.0128567,-4.493676,2.0732129,8.0
2.6071734,-4.5111814,1.9468346,79.0
2.341641,-4.58609,1.876466,63.0
2.715729,-4.461803,2.2613845,87.0
2.4191294,-4.4881907,2.1604764,87.0
2.009379,-4.673286,1.7966945,11.0
1.8281708,-4.930399,1.8020595,1.0
2.0334496,-4.492553,2.0255408,91.0
1.7972314,-4.5777936,1.9694419,114.0
3.7646048,-5.615359,1.8318202,1.0
3.5284853,-4.491518,1.8994652,8.0
3.3443682,-5.468447,2.0411224,23.0
2.548258,-4.6868114,1.6410145,1.0
3.757258,-4.802977,1.3503627,5.0
3.4148092,-5.567259,1.3625698,1.0
3.3790524,-4.4717216,2.1898134,18.0
3.0506258,-4.504176,2.0848362,7.0
2.637895,-4.514948,1.9539475,71.0
2.3768883,-4.6017113,1.8876061,38.0
2.7444465,-4.4614,2.2678277,86.0
2.4437432,-4.483206,2.1636422,82.0
2.0328953,-4.667209,1.79805,57.0
1.8434895,-4.9004927,1.7941421,1.0
2.061579,-4.497989,2.0324845,103.0
1.8167504,-4.564103,1.9671761,75.0
4.0730057,-6.0166187,1.971281,1.0
3.5531595,-4.47928,1.9013903,1.0
3.2693002,-4.5882444,1.8340592,1.0
3.3242147,-5.6597643,1.7242041,1.0
3.3821661,-5.47201,2.0485184,45.0
2.569403,-4.6730757,1.640415,1.0
2.6642828,-6.0037193,1.6000614,1.0
3.793204,-4.802009,1.3552345,1.0
3.4207056,-4.468064,2.1986716,14.0
3.0914524,-4.5034018,2.0935538,1.0
2.6719673,-4.5079103,1.9582154,77.0
2.3997042,-4.57504,1.8827323,28.0
2.7811987,-4.458013,2.2750766,82.0
2.481574,-4.4854803,2.172348,71.0
2.0675635,-4.666365,1.8027945,51.0
1.8816026,-4.908234,1.8013998,1.0
2.0992343,-4.504979,2.0417426,84.0
1.8474573,-4.557756,1.9694419,112.0
4.1378856,-6.030726,1.9845884,1.0
3.616986,-4.5010386,1.9206411,1.0
3.305804,-4.578413,1.8384682,1.0
3.4042935,-5.431344,2.0411224,23.0
3.8269715,-4.7826376,1.3565632,1.0
3.4653566,-5.51285,1.3583869,1.0
3.4693122,-4.4728465,2.2119591,34.0
3.152501,-4.5314293,2.1160738,1.0
2.7099323,-4.507015,1.9653285,75.0
2.4371502,-4.5764546,1.8896949,48.0
2.8209705,-4.4589696,2.2847414,82.0
2.517744,-4.484246,2.1794713,74.0
2.0968423,-4.653282,1.8027945,60.0
1.8981229,-4.859328,1.7875443,1.0
2.1362617,-4.5100083,2.0502293,87.0
1.8823521,-4.561491,1.9762392,75.0
4.3505816,-5.613586,1.9826591,1.0
3.6391904,-4.470899,1.9174325,1.0
3.3501203,-4.579056,1.8472863,1.0
3.4373267,-5.4082446,2.0405061,1.0
3.1742537,-5.613778,1.9911216,1.0
2.7264767,-5.941583,1.5923334,1.0
3.856946,-4.7584977,1.3565632,1.0
3.5134988,-4.4713645,2.2222939,18.0
3.1830468,-4.514586,2.1175268,1.0
2.7568061,-4.520149,1.9788432,72.0
2.477364,-4.5825377,1.8987463,28.0
2.8608637,-4.4596014,2.2944064,79.0
2.5603166,-4.4939294,2.1921344,82.0
2.124457,-4.636601,1.8014389,48.0
1.9382932,-4.8719034,1.7967813,1.0
2.1637495,-4.4948378,2.0494578,90.0
1.9088451,-4.5444427,1.9739734,103.0
4.354765,-5.546885,1.9684495,60.0
3.7023046,-4.490207,1.9360416,1.0
2.886424,-4.714974,1.4467266,1.0
3.4950614,-5.42325,2.0546815,1.0
3.1905766,-5.5605636,1.9791317,1.0
2.753017,-5.9015036,1.5860546,1.0
3.922803,-4.7777653,1.3694069,1.0
3.5531516,-4.4637017,2.2296758,9.0
3.2135053,-4.4975376,2.1189797,1.0
2.7881205,-4.5074964,1.9809772,69.0
2.506108,-4.5668817,1.8987463,46.0
2.904892,-4.4660306,2.307293,94.0
2.6021967,-4.50166,2.2040062,89.0
2.152746,-4.6214585,1.8007612,72.0
1.9534183,-4.821071,1.782266,1.0
2.1968536,-4.491079,2.054087,87.0
1.9416859,-4.5425944,1.978505,79.0
4.378714,-5.505893,1.9635308,46.0
3.734102,-4.471205,1.9379666,1.0
2.933417,-4.7245827,1.4555272,1.0
3.5290675,-5.401183,2.0546815,8.0
3.2187681,-5.528843,1.9749352,1.0
2.7959015,-5.8963466,1.5894355,1.0
3.961509,-4.763491,1.3725072,10.0
3.5460334,-5.4122705,1.3496026,1.0
3.6057374,-4.471588,2.245178,18.0
3.3058476,-4.566544,2.161841,1.0
2.825381,-4.504106,1.987379,66.0
2.542,-4.5641775,1.9043163,28.0
2.9430313,-4.462935,2.3153472,78.0
2.636891,-4.4963374,2.2095463,115.0
2.1768687,-4.5976567,1.7966945,51.0
1.9900897,-4.8244357,1.7882041,1.0
2.2275121,-4.4821343,2.0564015,87.0
1.9643369,-4.5166945,1.9724629,80.0
4.365983,-5.4199786,1.9422164,67.0
3.7658067,-4.451981,1.9398917,1.0
3.4246368,-5.1715403,1.9739434,4.0
3.251513,-5.505218,1.9737362,1.0
4.003974,-4.753382,1.3769361,21.0
3.576708,-5.3850064,1.3483478,1.0
3.6397347,-4.470357,2.253298,9.0
2.853622,-4.5017667,1.9923581,67.0
2.5689616,-4.561971,1.9084939,43.0
2.9752584,-4.465733,2.3242066,93.0
2.6617718,-4.4901958,2.212712,67.0
2.2067106,-4.6042833,1.8034723,128.0
2.0048668,-4.7958117,1.7809465,1.0
2.2578013,-4.489684,2.0648882,87.0
1.9944743,-4.527762,1.981526,83.0
4.3598,-5.3606305,1.9280068,47.0
3.8151531,-4.467218,1.9546505,1.0
3.2322326,-5.7163553,1.664257,1.0
3.4319587,-5.130098,1.9640822,1.0
3.281311,-5.4964004,1.9761342,1.0
4.0542336,-4.767056,1.3866796,21.0
3.605329,-5.3729534,1.3496026,1.0
3.6796277,-4.461698,2.26068,17.0
3.3150175,-4.4743714,2.1349618,1.0
2.8869343,-4.491591,1.9959146,68.0
2.5975742,-4.54574,1.9084939,13.0
3.0228343,-4.4757013,2.3395095,73.0
2.7012162,-4.492316,2.2222095,57.0
2.233935,-4.5869503,1.8021168,112.0
2.026172,-4.7622375,1.773029,1.0
2.292734,-4.488528,2.0710604,87.0
2.0236337,-4.5168343,1.9822813,87.0
4.356567,-5.2886925,1.9116111,58.0
3.8630526,-4.466013,1.9649177,1.0
3.5685647,-5.5250688,1.7278278,1.0
3.254668,-5.67238,1.6572442,1.0
3.4544666,-5.094292,1.9585353,1.0
3.3285615,-5.496933,1.9839277,1.0
3.1474466,-6.0346613,2.0315363,1.0
4.091771,-4.75033,1.3893371,21.0
3.8247373,-4.9327526,1.3469467,1.0
3.6312819,-5.3388987,1.3466746,1.0
3.7243416,-4.458403,2.2710147,1.0
3.3452916,-4.4564433,2.1364148,1.0
2.92639,-4.490547,2.0037389,66.0
2.6447668,-4.561842,1.922419,39.0
3.0602543,-4.4701805,2.3467581,88.0
2.7426927,-4.4972606,2.2332897,77.0
2.2694411,-4.586289,1.807539,77.0
2.0582836,-4.7546196,1.7750084,1.0
2.3243158,-4.4805717,2.0741465,63.0
2.0580604,-4.517537,1.9883233,78.0
4.36992,-5.2376385,1.9028667,68.0
3.8935432,-4.444494,1.966201,1.0
3.6180952,-5.5251184,1.7350754,1.0
3.2883062,-5.6484656,1.6562423,1.0
3.4755776,-5.0568423,1.9523721,1.0
3.3799214,-5.5036044,1.9941192,1.0
3.1979108,-6.0384054,2.0396714,1.0
4.140841,-4.74651,1.3959804,19.0
3.6536038,-5.2999105,1.3424916,1.0
3.7691588,-4.454722,2.2813494,9.0
3.3878198,-4.4546714,2.1458588,1.0
2.958692,-4.4782944,2.0065842,65.0
2.6733773,-4.5451345,1.922419,24.0
3.0914285,-4.4553647,2.3491745,85.0
2.7699354,-4.478373,2.2324984,70.0
2.2990644,-4.573617,1.8082167,43.0
2.0873625,-4.7398624,1.7743486,1.0
2.3576212,-4.4756536,2.0787756,101.0
2.0925758,-4.517986,1.9943655,100.0
4.375327,-5.1778316,1.8908432,46.0
3.940322,-4.4411316,1.9758264,1.0
3.3051217,-5.5959587,1.6467248,27.0
3.47013,-4.981946,1.9314172,1.0
3.4043987,-5.4660316,1.9881241,1.0
3.2348766,-6.0165105,2.0390904,1.0
4.20428,-4.7582917,1.4074955,9.0
3.6947083,-5.2880473,1.3454196,1.0
3.828649,-4.4675393,2.3005424,17.0
3.445172,-4.4717827,2.1647468,1.0
3.00037,-4.479755,2.0158312,64.0
2.709518,-4.5411577,1.9279891,49.0
3.132065,-4.453775,2.3588393,94.0
2.813538,-4.4858365,2.2451615,84.0
2.1117475,-4.7145705,1.7697301,1.0
2.3944633,-4.4769883,2.0864909,78.0
2.1240497,-4.5114636,1.9973865,70.0
4.383923,-5.122538,1.8804592,86.0
4.012629,-4.4654503,1.9982855,1.0
3.4870315,-4.939885,1.9234049,1.0
3.4518545,-5.465547,1.9959177,1.0
4.2393146,-4.737579,1.4092671,16.0
3.7153735,-5.2472105,1.3408184,1.0
3.8652065,-4.453192,2.3057098,1.0
3.4834716,-4.4633055,2.171285,1.0
3.044294,-4.4839525,2.0265007,71.0
2.743785,-4.53369,1.9321666,38.0
3.166395,-4.442929,2.3636718,70.0
2.8544042,-4.4882674,2.2554505,79.0
2.3790479,-4.5877075,1.8258389,1.0
2.157621,-4.7373557,1.7835855,1.0
2.430528,-4.4764175,2.0934343,81.0
2.165827,-4.5264826,2.0102258,80.0
4.405906,-5.0832925,1.8760871,52.0
4.047005,-4.4471335,2.001494,1.0
2.9260142,-4.809627,1.4218113,1.0
3.485747,-4.8731093,1.9055316,1.0
3.4779358,-5.4308705,1.9911216,1.0
2.5792642,-4.6651254,1.5835278,1.0
4.3097405,-4.7555203,1.4229966,1.0
3.7528498,-5.230104,1.3424916,1.0
3.9165184,-4.4552636,2.3197355,10.0
3.518349,-4.450125,2.1756437,1.0
3.076669,-4.47088,2.029346,48.0
2.7809885,-4.5307755,1.9384329,10.0
3.2157948,-4.452548,2.37978,89.0
2.885517,-4.4748864,2.2578247,69.0
2.3998768,-4.557716,1.819739,1.0
2.1810508,-4.709975,1.7783073,1.0
2.472062,-4.4852448,2.1050072,99.0
2.1966338,-4.5177913,2.0124917,74.0
4.411014,-5.025227,1.8646101,50.0
4.42469,-5.596733,1.935085,1.0
4.1135197,-4.463276,2.0207446,1.0
2.9420252,-4.7680264,1.4147985,1.0
3.4747877,-4.7942524,1.8827277,1.0
3.5481806,-5.4650354,2.012104,1.0
2.8121433,-5.983051,1.5388075,1.0
2.6038108,-4.6405005,1.5806224,1.0
4.3382115,-4.726915,1.4225538,1.0
3.783327,-5.2032647,1.341655,1.0
3.9684339,-4.4714084,2.3381903,17.0
3.5601125,-4.459784,2.18872,1.0
3.1159384,-4.482356,2.041438,62.0
2.8170414,-4.541576,1.9488769,17.0
3.2573428,-4.465369,2.395083,126.0
2.918533,-4.479752,2.267322,67.0
2.4293475,-4.5612717,1.8258389,1.0
2.2008374,-4.6945066,1.776328,1.0
2.4958847,-4.47837,2.1073217,81.0
2.2235754,-4.5190444,2.0177784,88.0
4.4026375,-4.968485,1.850947,28.0
4.1396866,-4.4493723,2.0233114,1.0
2.978721,-4.7771635,1.4218113,14.0
2.638959,-4.6514316,1.5887574,1.0
5.2515664,-5.6621594,1.71929,1.0
3.81013,-5.1885242,1.3424916,1.0
4.007675,-4.4587893,2.344834,8.0
3.155945,-4.4794545,2.0492625,73.0
2.853459,-4.536513,1.9544469,1.0
3.3006446,-4.4653687,2.4063587,53.0
2.954674,-4.4736176,2.2736537,64.0
2.475988,-4.578951,1.8393946,1.0
2.2165973,-4.6515565,1.7651116,1.0
2.5367804,-4.4850345,2.118123,93.0
2.2617812,-4.524902,2.0268414,89.0
4.4182963,-4.9235897,1.8443887,48.0
4.1923294,-4.4493866,2.0355034,1.0
2.9911869,-4.7304688,1.4132957,40.0
2.9172525,-5.736487,1.8511155,1.0
5.269632,-5.6106157,1.7135324,1.0
3.8485172,-5.172309,1.344583,1.0
4.060729,-4.4609275,2.359598,11.0
3.193854,-4.4731917,2.0556643,42.0
2.9089653,-4.561278,1.9732459,1.0
3.3407664,-4.460616,2.415218,72.0
3.0071094,-4.4916873,2.2926486,64.0
2.5028856,-4.5600114,1.838039,85.0
2.2425153,-4.630728,1.7624725,1.0
2.5723088,-4.481781,2.1242952,85.0
2.2918308,-4.513911,2.028352,63.0
4.4140916,-4.857397,1.8296325,28.0
4.2425103,-4.4461823,2.0464122,1.0
3.853113,-4.4825625,1.9260188,1.0
3.0603378,-4.773665,1.4323307,36.0
3.1751606,-5.429123,1.8746462,1.0
2.9418588,-5.69584,1.8438033,1.0
5.2683883,-5.539335,1.7015744,1.0
3.8809395,-5.148026,1.344583,1.0
4.11776,-4.466661,2.3765764,66.0
3.2384164,-4.4756913,2.0663338,57.0
2.9679313,-4.590257,1.9941336,1.0
3.394301,-4.472986,2.4337425,77.0
3.0486057,-4.4925127,2.3029375,42.0
2.5397866,-4.5589576,1.844139,68.0
2.216167,-4.502824,1.7182668,1.0
2.6116354,-4.4846206,2.1335535,95.0
2.3504636,-4.558799,2.0555413,89.0
4.269364,-4.640412,1.7563984,30.0
4.29942,-4.449311,2.0605295,1.0
3.9060307,-4.4869843,1.938616,1.0
3.2131371,-5.4156365,1.8769705,1.0
2.8960717,-5.5206122,1.7920558,1.0
5.284095,-5.486507,1.6953739,1.0
3.2786925,-4.4717927,2.0741582,63.0
2.9895597,-4.560516,1.9892597,1.0
3.5075362,-4.5615644,2.4949539,49.0
3.0850542,-4.485407,2.309269,48.0
2.5739758,-4.552716,1.8482057,71.0
2.310578,-4.622488,1.7703899,126.0
2.6473198,-4.4808025,2.1397257,100.0
2.3696837,-4.525856,2.0472336,65.0
4.3866086,-4.7075205,1.7930155,1.0
4.316656,-4.411413,2.0553958,1.0
3.9629064,-4.495201,1.9531028,1.0
3.5007484,-4.539673,1.8217119,1.0
3.257022,-5.411706,1.8827813,1.0
2.935185,-5.5107913,1.7948682,1.0
5.3089046,-5.44345,1.6922737,1.0
4.2350745,-4.479193,2.4120097,5.0
3.8018665,-4.4681664,2.2511954,1.0
3.3257682,-4.476543,2.0862503,50.0
3.0202188,-4.5447726,1.9906522,1.0
3.7779682,-4.8476405,2.6673121,87.0
3.1883957,-4.5747037,2.3662534,25.0
2.610072,-4.549481,1.8536279,79.0
2.3599312,-4.6483626,1.7862247,37.0
2.675421,-4.464081,2.1397257,91.0
2.3903084,-4.49613,2.040436,69.0
4.381655,-4.6435943,1.778806,46.0
4.438412,-5.213974,1.8557734,1.0
4.392447,-4.4324856,2.0784967,1.0
4.003666,-4.4844155,1.9594015,1.0
3.5409694,-4.5325394,1.8278751,1.0
2.905231,-4.9905,1.4025166,1.0
3.3130124,-5.4269996,1.8955649,1.0
2.98427,-5.5193005,1.8038678,1.0
5.3017764,-5.368466,1.678987,1.0
3.9845507,-5.0831747,1.3470929,1.0
4.259999,-4.4632072,2.4142244,1.0
3.8434384,-4.4743013,2.2635453,1.0
3.362608,-4.481696,2.0962086,66.0
3.0603085,-4.558579,2.0031848,1.0
3.8394237,-4.878569,2.694696,46.0
3.1594303,-4.4873524,2.3282638,1.0
2.6409853,-4.5533714,1.8604057,75.0
2.7166333,-4.4844875,2.1559274,84.0
2.424527,-4.5093346,2.051765,70.0
4.4141397,-4.634005,1.7831781,23.0
4.4403934,-5.1666155,1.8461922,1.0
4.4468865,-4.4451084,2.094539,1.0
4.042479,-4.4852996,1.9682195,1.0
3.5634727,-4.5172925,1.8284914,1.0
2.9099019,-4.9450397,1.3933396,1.0
3.35168,-5.4324584,1.9031188,1.0
3.0340447,-5.5490365,1.818492,1.0
5.31597,-5.332402,1.6754439,1.0
4.3255477,-4.474988,2.435632,1.0
3.8921847,-4.4740353,2.275895,1.0
3.3986568,-4.4708676,2.1011877,45.0
3.0710566,-4.5128436,1.9913485,1.0
3.8573961,-4.8386445,2.6858366,80.0
3.2034817,-4.489899,2.3401356,1.0
2.6743453,-4.544778,1.8637946,74.0
2.3294368,-4.464458,1.7242049,18.0
2.7437842,-4.4657617,2.155156,93.0
2.4501696,-4.4891243,2.0494993,70.0
4.4096675,-4.5716686,1.769515,34.0
4.443756,-5.1050816,1.8339494,1.0
4.519357,-4.4608502,2.1157148,1.0
4.071856,-4.461218,1.9688493,1.0
3.6132593,-4.5214925,1.8395852,1.0
2.9389133,-4.9233327,1.3923737,1.0
3.39901,-5.43234,1.9106729,1.0
5.331308,-5.2811017,1.6696863,1.0
4.3848886,-4.4795,2.4533486,8.0
3.9373975,-4.469125,2.2860656,1.0
3.4427233,-4.4701004,2.111146,70.0
3.099351,-4.4934583,1.9913485,1.0
3.8911862,-4.8185735,2.6882527,68.0
3.2144983,-4.445804,2.3274724,1.0
2.7038186,-4.5294967,1.8644724,68.0
2.7816079,-4.4640565,2.1628711,86.0
2.4934735,-4.5012407,2.0623386,68.0
4.4396534,-4.5452437,1.7700615,38.0
4.450334,-5.0480604,1.8233036,1.0
4.799027,-4.6761675,2.2344272,1.0
4.1319,-4.4705033,1.9845959,1.0
4.421326,-5.713574,1.9012512,1.0
3.5292833,-5.093899,1.5685811,1.0
3.6620364,-4.52377,1.8500627,1.0
2.9617004,-4.891517,1.3885098,1.0
2.882252,-5.364249,1.414716,1.0
3.4691384,-5.4673195,1.9310105,1.0
2.658715,-4.7147,1.5513179,1.0
4.4142604,-4.4531765,2.4540868,15.0
3.9938238,-4.4763737,2.3027742,1.0
3.4857588,-4.467486,2.120393,53.0
3.1382074,-4.4893026,1.998311,1.0
3.929531,-4.8039217,2.6938906,82.0
3.265049,-4.4567175,2.3440928,1.0
2.740071,-4.525265,1.8698946,73.0
2.8125763,-4.4511595,2.1651857,78.0
2.5280144,-4.49681,2.0676255,68.0
4.4499736,-4.9839497,1.8099962,1.0
4.850217,-4.6668706,2.2446945,1.0
4.1741247,-4.459746,1.9915243,1.0
4.4164696,-5.6341033,1.8836501,1.0
3.5291023,-5.025564,1.5540545,1.0
3.6976569,-4.509474,1.8537606,1.0
2.992376,-4.872812,1.3885098,1.0
2.9001584,-5.316943,1.4068445,1.0
3.4774094,-5.4052606,1.9164836,1.0
2.6665053,-4.659506,1.5383811,1.0
4.494997,-4.4776564,2.4836147,30.0
4.0355606,-4.466447,2.310765,1.0
3.5358827,-4.4732795,2.1339078,30.0
3.1728213,-4.4786997,2.0024886,1.0
3.9572923,-4.7763257,2.6922798,66.0
3.3147736,-4.4656916,2.359922,1.0
2.7803402,-4.5271554,1.8780279,75.0
2.8575122,-4.4597464,2.1783016,81.0
2.566243,-4.4985714,2.0759332,66.0
4.5319304,-4.524324,1.7842711,6.0
4.469603,-4.9429865,1.8052057,1.0
4.8463917,-4.605088,2.2292938,7.0
4.2280884,-4.4610724,2.0041215,1.0
4.4349036,-5.5851107,1.8764025,1.0
3.5214984,-4.9479465,1.5365223,1.0
3.7393458,-4.502206,1.8605402,1.0
3.014679,-4.8407636,1.3846458,1.0
2.9325716,-5.296911,1.4063815,1.0
3.5239096,-5.4024997,1.9234564,1.0
2.7206225,-4.685909,1.5530053,27.0
4.521713,-4.448026,2.4828765,14.0
4.087356,-4.4672036,2.3245678,1.0
3.5756543,-4.465524,2.1410208,53.0
3.2150397,-4.478528,2.01154,1.0
3.9848616,-4.74857,2.690669,80.0
3.3482597,-4.452136,2.363879,1.0
2.8067284,-4.50641,1.8766724,71.0
2.8935664,-4.454052,2.1844738,84.0
2.6009073,-4.493603,2.0812201,66.0
4.597375,-4.5321097,1.7990273,1.0
4.265702,-4.6567407,1.7088606,1.0
4.717306,-4.4272633,2.1561413,1.0
4.2756824,-4.4550266,2.0135694,1.0
4.439531,-5.519589,1.8634604,1.0
3.5209517,-4.8816447,1.5224965,1.0
3.7786288,-4.491688,1.8660871,1.0
3.0346131,-4.805354,1.3798158,1.0
2.9563212,-5.2613864,1.4017513,1.0
3.5747545,-5.4057393,1.9327537,1.0
4.558648,-4.4421844,2.4917347,1.0
4.122219,-4.4629965,2.3325589,1.0
3.6167243,-4.4732647,2.1531131,72.0
3.245963,-4.4770255,2.0178063,1.0
4.0095706,-4.732525,2.6922798,78.0
3.3924189,-4.4671106,2.3804996,1.0
2.8450756,-4.5201406,1.8881946,74.0
2.9348915,-4.4711413,2.199904,115.0
2.6359887,-4.5053277,2.0925488,61.0
4.6338677,-4.525133,1.805039,1.0
4.4415097,-4.8041053,1.7716712,1.0
4.743682,-4.4101257,2.1587079,1.0
4.324272,-4.4635496,2.0267966,1.0
4.437382,-5.464196,1.8515538,1.0
3.5575337,-4.8838253,1.5285075,1.0
3.805937,-4.481061,1.8691686,1.0
3.078221,-4.823647,1.3894757,1.0
2.9562423,-5.2033277,1.3897125,1.0
3.7678792,-5.638139,2.0239825,1.0
3.1973743,-5.376324,1.798243,1.0
4.186961,-4.476597,2.3536263,13.0
3.6507063,-4.457662,2.1566696,41.0
3.290596,-4.4792676,2.0282502,1.0
4.0308495,-4.697541,2.686642,85.0
3.4404845,-4.4719834,2.3947456,1.0
2.8754568,-4.5053396,1.8895501,72.0
2.9649825,-4.455677,2.201447,83.0
2.661427,-4.483888,2.0902832,71.0
4.676099,-4.5092397,1.8105043,1.0
4.4335237,-4.7351727,1.7562348,1.0
4.8034844,-4.4095964,2.1734667,1.0
4.335008,-4.4186196,2.0186083,1.0
4.432218,-5.388579,1.834988,1.0
3.8576868,-4.4843836,1.8808788,1.0
3.0830257,-4.765194,1.3778838,1.0
2.9908092,-5.1880283,1.3906386,1.0
3.5035322,-5.1747828,1.8624437,1.0
3.2527843,-5.3923545,1.8106174,1.0
4.2750196,-4.513986,2.38777,1.0
3.6954212,-4.4547186,2.166628,61.0
3.3420684,-4.4901733,2.0428715,1.0
4.0675178,-4.680389,2.6914744,73.0
3.4808772,-4.4662585,2.4034517,1.0
2.9211884,-4.513973,1.9010724,70.0
3.0064094,-4.4567947,2.2114768,66.0
2.7123244,-4.505244,2.1084094,45.0
4.7322865,-4.506217,1.8214347,1.0
4.4605436,-4.7044163,1.7551701,1.0
4.881763,-4.4249706,2.1965675,1.0
4.4360237,-4.465601,2.0532506,25.0
4.428762,-5.3162055,1.8194575,1.0
3.9008439,-4.47722,1.8882747,1.0
3.1278894,-4.768395,1.3846458,1.0
3.5131297,-5.119605,1.8502411,1.0
3.2935755,-5.3832927,1.8145548,1.0
4.278875,-4.461404,2.3739672,1.0
3.743865,-4.455669,2.17872,72.0
3.3780787,-4.4795938,2.0477455,1.0
4.088347,-4.6451483,2.6858366,76.0
3.5326633,-4.4746585,2.420072,12.0
2.9505308,-4.4970994,1.9017502,67.0
2.5742967,-4.398043,1.745318,1.0
3.0385416,-4.4438944,2.214563,84.0
2.7242749,-4.46118,2.09557,37.0
4.7801857,-4.4947844,1.8290861,1.0
4.4607353,-4.6456113,1.7434597,1.0
4.947684,-4.4282026,2.2138932,1.0
4.4921737,-4.4658356,2.0664778,1.0
4.4483256,-5.272073,1.813763,1.0
3.9453268,-4.4711127,1.8962868,1.0
3.157788,-4.7486477,1.3846458,57.0
3.5079014,-5.044135,1.8304845,1.0
3.357534,-5.4115157,1.8314289,1.0
4.3572817,-4.4867296,2.4022992,1.0
3.7851675,-4.44767,2.1865444,40.0
3.434479,-4.495629,2.065152,1.0
4.1284556,-4.6316323,2.6930852,76.0
3.5995378,-4.5012836,2.4469814,1.0
2.9881604,-4.492537,1.9078501,68.0
3.0769708,-4.4398413,2.222278,79.0
2.7774436,-4.4850087,2.1152067,6.0
4.84368,-4.497278,1.8427491,1.0
4.4094605,-4.5343075,1.7115221,1.0
4.9896417,-4.4095287,2.2203102,1.0
4.512043,-4.4295177,2.0626986,1.0
4.443582,-5.200072,1.7982326,1.0
4.3916554,-5.7275834,1.8325665,1.0
3.9949768,-4.47028,1.9067643,1.0
3.2050111,-4.7544003,1.3923737,52.0
3.510726,-4.9814196,1.8153766,1.0
3.4473984,-5.479839,1.8623649,1.0
4.4231515,-4.4979153,2.4233663,1.0
3.8301923,-4.443562,2.1965027,51.0
3.4660845,-4.478421,2.0672407,1.0
4.145164,-4.5920525,2.6850312,68.0
3.6381087,-4.4914603,2.4541044,1.0
3.0258489,-4.487679,1.9139502,66.0
2.7406437,-4.551784,1.8211933,1.0
3.1239984,-4.4475274,2.2361655,80.0
2.8486378,-4.5366406,2.148438,1.0
4.915925,-4.5069256,1.8596914,1.0
5.0902333,-4.441386,2.2530363,1.0
4.57511,-4.4355474,2.0790749,1.0
4.457139,-5.1501946,1.7904673,1.0
4.4512258,-5.7305264,1.8425848,67.0
4.0370817,-4.460561,1.9135438,1.0
3.2381222,-4.7389646,1.3938227,67.0
3.515137,-4.9219766,1.8014308,1.0
3.530035,-5.534272,1.8888011,1.0
4.4560747,-4.4889617,2.4299045,1.0
3.8744967,-4.4521737,2.2100174,35.0
3.498642,-4.4768524,2.0742033,1.0
4.177895,-4.584609,2.6922798,81.0
3.994993,-4.887771,2.683625,1.0
3.0544186,-4.484228,1.9186946,66.0
2.7825446,-4.5727677,1.8350489,1.0
3.154582,-4.446265,2.2431092,80.0
2.855191,-4.499655,2.1371093,1.0
4.958531,-4.5030456,1.8678892,1.0
4.5904617,-4.618595,1.7631545,1.0
5.1283493,-4.432162,2.2607367,1.0
4.623259,-4.440323,2.0916722,1.0
4.4673295,-5.113173,1.7847728,1.0
4.4543667,-5.6789494,1.8325665,64.0
4.0812435,-4.4666924,1.9246377,1.0
3.5157971,-4.874391,1.7898093,1.0
4.494726,-4.4714227,2.4357162,116.0
3.9197645,-4.4473147,2.2199757,51.0
3.5452373,-4.478368,2.0853434,1.0
4.2041264,-4.555586,2.690669,68.0
4.037292,-4.876759,2.6915395,1.0
3.0975811,-4.486571,1.9281836,65.0
2.813192,-4.558415,1.8363684,1.0
3.19978,-4.4502625,2.2554533,77.0
2.9122925,-4.526902,2.1590116,1.0
5.0125785,-4.494843,1.8777266,1.0
4.613937,-4.5842094,1.7610253,1.0
5.208102,-4.4439616,2.2838373,1.0
4.6785297,-4.4373994,2.1042693,1.0
4.4685407,-5.0503726,1.7723484,1.0
4.453953,-5.6052694,1.8175389,61.0
4.127384,-4.460452,1.9332662,1.0
3.3314037,-4.761769,1.4116935,4.0
3.5327406,-4.8337097,1.7828364,1.0
3.5467885,-5.4275064,1.8651773,1.0
4.549234,-4.4692955,2.4502454,31.0
3.963874,-4.4406714,2.2292228,52.0
3.5849829,-4.4706726,2.092306,1.0
4.227649,-4.5237474,2.6874473,75.0
4.0678535,-4.851296,2.6915395,1.0
3.1419775,-4.4900846,1.9383502,68.0
2.8527288,-4.5582957,1.843626,1.0
3.2375073,-4.443456,2.262397,77.0
2.955766,-4.5318384,2.1703405,1.0
5.075383,-4.493764,1.8908432,1.0
4.6618557,-4.5740914,1.7684774,1.0
5.276586,-4.4452033,2.3018048,1.0
4.720132,-4.4209356,2.1105678,1.0
4.4678464,-4.9863253,1.7594064,1.0
4.4624686,-5.5439143,1.8065186,70.0
4.167079,-4.446887,1.9388131,1.0
3.5776553,-5.4003043,1.8634899,1.0
4.6078906,-4.470565,2.466954,58.0
4.021895,-4.4488544,2.246294,30.0
3.6447787,-4.487466,2.1111047,1.0
4.268616,-4.5103498,2.6955016,61.0
4.099439,-4.827045,2.692331,1.0
3.1766925,-4.4794397,1.9424169,48.0
2.8853352,-4.546674,1.8462652,1.0
3.2895937,-4.4555955,2.2793705,85.0
2.968948,-4.4899487,2.1590116,1.0
5.135466,-4.489548,1.9028667,1.0
4.7236323,-4.5770097,1.7812525,1.0
4.7992277,-4.439042,2.1338727,1.0
4.47434,-4.9310474,1.7495705,1.0
4.4789248,-5.493204,1.7990048,45.0
4.2304235,-4.4577627,1.9554538,1.0
3.401219,-4.73368,1.4160404,1.0
3.643466,-5.425619,1.880364,1.0
4.062437,-4.437241,2.2534072,51.0
3.6989956,-4.496422,2.1264224,1.0
4.2854323,-4.471583,2.6882527,70.0
4.123721,-4.794211,2.6883738,1.0
3.2147086,-4.473107,1.9485168,58.0
2.9250178,-4.5459623,1.8535229,1.0
3.324188,-4.4436793,2.2839997,77.0
2.9745433,-4.437278,2.142396,1.0
5.204456,-4.4922705,1.9181694,1.0
4.766185,-4.5606112,1.7865754,1.0
4.8577714,-4.4370594,2.1477296,1.0
4.4764905,-5.42006,1.7839772,51.0
4.2636404,-4.4365644,1.957919,1.0
3.4504073,-4.738821,1.4242513,1.0
3.565681,-5.2372646,1.8218669,1.0
4.1208487,-4.4444227,2.2704785,59.0
3.7319548,-4.47887,2.1292076,1.0
4.307047,-4.438021,2.6842258,55.0
4.1645803,-4.7807055,2.6954968,24.0
3.2572234,-4.4725404,1.957328,65.0
2.9463437,-4.516398,1.8489044,1.0
3.3766813,-4.4549675,2.3009732,81.0
3.0334141,-4.464572,2.1650536,1.0
5.291296,-4.5092244,1.9400302,1.0
4.8338666,-4.567769,1.8014796,1.0
4.9178843,-4.435791,2.1622164,1.0
4.484457,-4.819435,1.7293808,1.0
4.488172,-5.36503,1.7749605,30.0
4.328713,-4.4477444,1.975176,1.0
3.4997935,-4.74353,1.4324622,1.0
3.5410123,-5.1308503,1.7920558,1.0
4.172513,-4.4576044,2.2875497,72.0
3.7722507,-4.4842567,2.1403477,1.0
4.333054,-4.422889,2.6874473,23.0
4.188271,-4.7624106,2.696288,60.0
3.2939496,-4.4783053,1.9668169,52.0
2.9799907,-4.5214276,1.8568218,1.0
3.401018,-4.4433894,2.3032877,80.0
3.0658834,-4.467067,2.1733615,44.0
4.866565,-4.5555134,1.805738,1.0
4.961319,-4.432872,2.1722941,1.0
4.5004835,-4.7912292,1.7267925,1.0
4.494728,-5.321577,1.7674468,45.0
4.367017,-4.444884,1.9831882,1.0
3.2661128,-4.888764,1.364709,1.0
4.2984195,-5.521664,2.089644,1.0
3.512714,-5.038361,1.7650572,1.0
4.218505,-4.4502325,2.297508,46.0
3.828204,-4.4933877,2.1563616,1.0
4.2315006,-4.7511315,2.7049942,47.0
3.328802,-4.4665484,1.9708836,55.0
3.0198135,-4.5199265,1.8640795,1.0
3.453861,-4.453922,2.320261,82.0
3.0970457,-4.4522877,2.1756272,13.0
4.933208,-4.5602956,1.8201098,1.0
5.0415983,-4.448238,2.195599,1.0
4.5017343,-5.2622557,1.7569274,28.0
4.415054,-4.437524,1.9924331,1.0
3.2978506,-4.8697605,1.365172,1.0
4.2997255,-5.452569,2.0733738,1.0
3.5068219,-4.962772,1.7459332,1.0
4.281454,-4.4599323,2.3167133,23.0
