x,y,z,intensity
16.450623,8.451537,-0.5217925,75.0
17.874125,8.369262,-0.6264492,1.0
21.272032,8.419172,-0.21391605,64.0
24.254778,8.555656,-0.34262502,24.0
17.95728,8.436838,2.0926862,98.0
17.909702,8.466997,0.71429956,1.0
14.766103,8.425889,-0.39015496,78.0
16.102741,8.401522,-0.5149022,94.0
17.799532,8.47107,-0.62585527,1.0
18.613792,8.3473215,-0.09103165,52.0
20.899773,8.423776,-0.21277222,91.0
23.786423,8.559244,-0.3391219,42.0
17.925426,8.559798,2.0953684,75.0
18.61813,8.421893,1.3051382,94.0
14.571056,8.436166,-0.38772145,76.0
15.94002,8.444618,-0.5123287,80.0
18.340693,8.363921,-0.09158699,72.0
20.544954,8.430887,-0.21168825,80.0
23.313364,8.555228,-0.33557102,48.0
18.300098,8.417259,1.2845649,82.0
14.302377,8.400685,-0.38401186,82.0
15.659338,8.422678,-0.5069742,54.0
17.19129,8.447527,-0.61204666,1.0
18.022743,8.356437,-0.09225709,79.0
20.1838,8.393685,-0.21053113,74.0
22.826584,8.499278,-0.3317813,74.0
19.005482,8.467922,2.0588846,1.0
18.626404,8.35347,0.6093119,71.0
17.999678,8.382388,1.2642733,89.0
14.150942,8.401493,-0.38208288,78.0
15.485895,8.423914,-0.50381964,53.0
18.367952,8.305526,-0.76722926,54.0
17.919767,8.411595,-0.092417724,101.0
19.834248,8.394554,-0.20946045,94.0
22.413614,8.506586,-0.32872406,37.0
18.565851,8.4127035,2.014141,66.0
18.320667,8.355315,0.5991425,89.0
17.915985,8.480838,1.2618778,103.0
13.940386,8.395129,-0.37935263,80.0
15.257503,8.424599,-0.49966884,125.0
18.057377,8.302453,-0.75836754,62.0
19.500183,8.397709,-0.20844299,80.0
21.977211,8.499689,-0.32545978,25.0
18.277681,8.421228,1.9868331,82.0
18.010208,8.351136,0.5887536,98.0
13.785046,8.419881,-0.37757203,82.0
15.0559025,8.437382,-0.4961407,50.0
17.818237,8.328751,-0.75193965,134.0
19.166874,8.397002,-0.20742552,71.0
21.614388,8.516178,-0.32281652,40.0
17.979336,8.421419,1.9582645,99.0
17.886839,8.430971,0.5859003,89.0
13.585781,8.415577,-0.37501982,82.0
14.813005,8.4242935,-0.49161637,73.0
16.050005,8.360521,-0.58586466,1.0
17.79807,8.455949,-0.75306296,32.0
18.67914,8.323098,-0.20584278,81.0
21.161257,8.492031,-0.31939304,26.0
17.927864,8.535072,1.9584746,78.0
18.542866,8.378989,1.1902479,92.0
13.390506,8.411238,-0.37252697,81.0
14.579541,8.413477,-0.48729956,77.0
18.356987,8.317861,-0.20485857,82.0
20.759302,8.482914,-0.31639948,48.0
18.301338,8.408487,1.1766979,58.0
13.192456,8.402627,-0.36997476,91.0
14.408968,8.436358,-0.48447704,90.0
15.737711,8.450645,-0.58007395,1.0
17.232533,8.454885,-0.7371493,1.0
18.074116,8.292269,-0.20396745,87.0
20.438135,8.464585,-0.31397915,70.0
18.842373,8.391477,1.938114,1.0
18.674217,8.355084,0.51201177,39.0
18.01191,8.378223,1.158718,89.0
13.05862,8.403974,-0.3683129,71.0
14.214071,8.412696,-0.48074135,80.0
17.902088,8.349749,-0.20352854,131.0
20.113537,8.478887,-0.31163844,43.0
18.586346,8.417551,1.9156754,59.0
18.372192,8.358591,0.5033115,61.0
17.931862,8.478406,1.1567637,82.0
12.880057,8.403734,-0.36608714,87.0
14.047703,8.434049,-0.47800183,86.0
16.617067,8.381545,-0.71892655,1.0
17.64516,8.365041,-0.20277707,61.0
19.697641,8.450111,-0.30850157,38.0
18.289188,8.421558,1.8886287,81.0
13.215797,8.942943,1.2586951,98.0
18.058174,8.352749,0.49416676,70.0
12.697017,8.39827,-0.36377233,77.0
13.847449,8.432887,-0.47443217,89.0
13.064398,8.882337,0.15200034,141.0
16.373604,8.388469,-0.71224904,35.0
17.36174,8.364389,-0.20192586,89.0
19.425947,8.478715,-0.3066067,35.0
17.971107,8.412023,1.859178,87.0
13.014885,8.926448,1.2433449,100.0
17.916739,8.424277,0.49105498,83.0
12.517879,8.393072,-0.36151692,77.0
13.6171255,8.410671,-0.47011536,82.0
12.919496,8.902861,0.15001902,76.0
16.08458,8.3687315,-0.703949,24.0
17.091604,8.366679,-0.2011212,117.0
18.719456,8.311519,-0.30092213,65.0
17.932266,8.531626,1.8607807,83.0
13.2095785,8.912387,0.7110492,64.0
12.886625,8.957916,1.2356697,159.0
18.634336,8.398529,1.0796396,102.0
12.360793,8.4006,-0.35964727,79.0
13.424944,8.409203,-0.46671173,74.0
12.765027,8.915033,0.14781757,90.0
15.844213,8.370856,-0.6973339,25.0
13.151598,8.959727,1.8033385,83.0
16.83287,8.371264,-0.20035642,105.0
18.409744,8.313177,-0.29867694,57.0
13.021552,8.90485,0.70253575,163.0
12.758487,8.988127,1.2279947,83.0
18.337885,8.404231,1.0637012,86.0
12.187658,8.395123,-0.35748088,78.0
13.302584,8.449521,-0.46500993,88.0
12.612551,8.926777,0.1456528,96.0
15.7719145,8.45987,-0.6966474,1.0
12.927858,8.896443,1.7764436,150.0
16.587894,8.346887,-0.19959165,99.0
18.115614,8.283663,-0.2964477,104.0
12.9006405,8.911526,0.69742763,92.0
12.604081,8.968301,1.2159587,135.0
18.668835,8.345114,0.37312564,82.0
18.029926,8.366455,1.0460974,95.0
12.051205,8.384941,-0.35572997,80.0
13.107674,8.4129505,-0.4611912,75.0
12.487458,8.926695,0.14378156,100.0
14.254508,8.419759,-0.54770535,1.0
15.415395,8.362884,-0.6854142,25.0
12.829408,8.947912,1.7701439,91.0
16.330437,8.346049,-0.1988269,98.0
17.879953,8.312357,-0.29483944,69.0
18.612623,8.400017,1.7601078,59.0
12.746319,8.923554,0.69104254,116.0
12.492589,9.007626,1.2100279,104.0
18.359276,8.345842,0.36608076,81.0
17.902933,8.44473,1.0412208,92.0
11.872563,8.371584,-0.35344484,84.0
12.886817,8.386299,-0.45704046,87.0
12.351849,8.947393,0.1419837,96.0
14.038511,8.41133,-0.54300344,1.0
15.176811,8.357579,-0.67879915,1.0
12.68385,8.965204,1.7568176,102.0
16.078974,8.345081,-0.19808207,103.0
17.850891,8.435619,-0.29504645,63.0
18.30416,8.399941,1.7340019,69.0
12.613515,8.949049,0.6860409,90.0
12.340922,9.016467,1.1997364,86.0
13.220313,8.936755,1.1772897,48.0
18.05227,8.343852,0.3590859,86.0
11.741708,8.390099,-0.35202035,83.0
12.748674,8.411057,-0.45492357,78.0
12.208423,8.960814,0.14000238,114.0
13.084302,8.899033,0.063535124,141.0
13.809531,8.392199,-0.53790563,1.0
14.944149,8.352531,-0.67237127,1.0
12.53375,8.977549,1.7427644,111.0
15.840555,8.347828,-0.1973838,106.0
17.572075,8.439616,-0.29305604,51.0
17.983803,8.390445,1.7066,82.0
12.454976,8.954542,0.6793365,113.0
12.199241,9.030887,1.1904913,114.0
12.976289,8.891447,1.158556,45.0
17.889051,8.405361,0.3560381,96.0
11.572258,8.3791,-0.34988365,88.0
12.560825,8.40113,-0.45156142,84.0
12.09257,8.993113,0.13864483,118.0
12.9358425,8.9176235,0.0621098,85.0
13.645981,8.410472,-0.5346886,1.0
12.387207,8.9907,1.7291957,93.0
15.599218,8.346021,-0.19667225,113.0
17.239975,8.414188,-0.29058793,112.0
17.914528,8.495611,1.7049335,93.0
12.3242855,8.978427,0.6744413,91.0
12.070605,9.053465,1.1826417,105.0
12.871008,8.938758,1.1536261,153.0
17.875599,8.536509,0.3571373,44.0
11.432405,8.38764,-0.3482811,84.0
12.3984585,8.405975,-0.44882193,90.0
11.946483,9.001405,0.13659012,94.0
12.76634,8.91984,0.06035359,101.0
13.404822,8.378179,-0.52919483,1.0
14.512064,8.352585,-0.6606388,25.0
12.245792,9.005901,1.7163539,109.0
13.018396,8.905509,1.6972697,92.0
15.383126,8.354906,-0.19605379,92.0
17.007498,8.433686,-0.28899562,42.0
12.209842,9.012908,0.6706102,120.0
13.013349,8.879924,0.61300534,141.0
11.940587,9.073579,1.1746178,124.0
12.768909,8.987388,1.1490248,97.0
11.281685,8.386389,-0.34647083,94.0
12.218387,8.396683,-0.44562584,75.0
11.810299,9.015513,0.13475558,109.0
12.623462,8.938739,0.059004616,102.0
13.2574215,8.402178,-0.5264232,1.0
14.295188,8.348036,-0.6547102,36.0
12.166596,9.036233,1.7107811,92.0
12.938662,8.940831,1.6919509,79.0
15.171902,8.332749,-0.19540207,107.0
16.767256,8.413498,-0.28721222,61.0
12.10005,9.020122,0.6661406,97.0
12.923616,8.908331,0.6102436,96.0
11.826641,9.075068,1.1667682,95.0
12.633731,8.9817505,1.139658,125.0
11.135004,8.358865,-0.34448248,83.0
12.083322,8.388164,-0.44321838,87.0
11.686997,9.008695,0.13288434,91.0
12.4932785,8.935419,0.057630192,98.0
13.130199,8.408376,-0.52384955,1.0
14.16094,8.359532,-0.65127784,44.0
12.019253,9.044337,1.6969702,115.0
12.784509,8.9537,1.678076,89.0
14.94467,8.330329,-0.19473706,100.0
16.514383,8.417185,-0.28542882,90.0
11.955573,9.02965,0.6602876,139.0
12.780514,8.928831,0.60519636,95.0
11.591828,9.010778,1.1470572,170.0
12.496109,9.002803,1.1314415,85.0
10.991637,8.359527,-0.3427909,92.0
11.912518,8.381241,-0.44022983,89.0
11.543574,9.014138,0.13086633,113.0
12.344502,8.946968,0.05617941,102.0
12.921288,8.389248,-0.5192467,1.0
13.93479,8.344829,-0.64497477,25.0
11.892794,9.066624,1.6863091,92.0
12.646924,8.976465,1.6665137,89.0
14.73373,8.334267,-0.1941319,106.0
16.246141,8.409775,-0.2835021,47.0
11.825718,9.048663,0.65539235,98.0
12.626244,8.939821,0.5994825,93.0
11.536547,9.084669,1.1472316,110.0
12.329719,9.001366,1.1202669,114.0
13.233444,8.940878,1.0890164,73.0
10.88668,8.388068,-0.34181157,92.0
11.774876,8.3956785,-0.43807143,75.0
11.41778,9.031809,0.12925194,96.0
12.210599,8.967637,0.054957703,96.0
12.708135,8.364526,-0.5144953,1.0
13.753846,8.354545,-0.64029425,84.0
13.0922985,8.885394,0.0041660042,1.0
11.752405,9.076739,1.6734674,123.0
12.491803,8.98512,1.6524075,92.0
14.521604,8.334888,-0.19352008,89.0
16.024708,8.423472,-0.2819894,96.0
13.188458,8.98259,2.190971,64.0
11.648795,9.029631,0.64730453,132.0
12.490215,8.962016,0.59481615,111.0
10.824243,8.632999,1.0737947,46.0
12.2296095,9.04671,1.1158301,84.0
13.048785,8.935801,1.0770638,109.0
10.658982,8.319465,-0.33851746,110.0
11.611568,8.390018,-0.4352489,90.0
10.621964,8.509642,0.11186042,60.0
12.072107,8.983403,0.053659633,104.0
12.615448,8.4175205,-0.51330745,1.0
13.547785,8.346623,-0.63467765,33.0
12.939082,8.900481,0.0031069354,46.0
11.602992,9.078098,1.6591718,82.0
12.348327,9.000359,1.6399201,94.0
14.308331,8.33217,-0.19290163,97.0
15.78786,8.426266,-0.2803334,42.0
13.0504,9.008959,2.1765206,55.0
11.529069,9.053219,0.6430478,98.0
12.335002,8.968783,0.589007,97.0
10.574743,8.542791,1.051816,105.0
12.065557,9.04342,1.1048199,104.0
12.905636,8.957238,1.0689422,175.0
10.561062,8.350235,-0.33765683,116.0
11.453646,8.386178,-0.4325509,73.0
10.484542,8.508045,0.10987911,82.0
11.935502,8.998988,0.052387018,93.0
12.342243,8.347344,-0.5067249,1.0
13.31862,8.321647,-0.62818736,14.0
12.802588,8.925455,0.0022273695,61.0
11.4618,9.084118,1.6460878,132.0
12.227549,9.030644,1.6306703,95.0
14.105996,8.333219,-0.19232306,97.0
15.57801,8.440681,-0.27891624,93.0
13.229975,8.974655,1.6592709,53.0
12.880131,9.011219,2.1562903,114.0
11.234648,8.93617,0.6268722,59.0
12.217229,9.001163,0.5853882,93.0
10.440777,8.543335,1.0427454,67.0
11.9306345,9.060089,1.0967677,121.0
12.988238,8.8558655,0.53833133,94.0
12.770883,8.982979,1.0615867,94.0
10.523977,8.428951,-0.3379536,121.0
11.302665,8.385444,-0.43001893,107.0
10.335219,8.4948845,0.107604265,68.0
11.810317,9.021695,0.051292572,99.0
12.28461,8.4213295,-0.50657636,1.0
13.18326,8.352848,-0.62512946,1.0
12.664663,8.947911,0.0013298534,45.0
10.674126,8.540346,1.529543,42.0
12.124285,9.043113,1.6218828,99.0
13.91729,8.310206,-0.19174449,95.0
15.295871,8.381651,-0.27671883,59.0
13.027008,8.926596,1.6373653,167.0
12.730953,8.996298,2.1372159,82.0
10.59204,8.505432,0.5857947,116.0
12.107294,9.008638,0.5813885,137.0
10.316028,8.522519,1.0331515,83.0
11.821307,9.065357,1.0898657,105.0
12.920056,8.898804,0.5369559,67.0
12.622843,8.967852,1.0516262,114.0
10.495012,8.487269,-0.33816135,55.0
11.174915,8.372798,-0.427736,78.0
10.224378,8.484644,0.105916485,80.0
11.691586,9.018724,0.05007086,110.0
12.052651,8.345688,-0.50078565,1.0
13.029175,8.341736,-0.6208858,1.0
12.5264,8.938827,0.00027078437,65.0
10.557096,8.555901,1.5196089,88.0
11.984726,9.056942,1.6098579,77.0
13.729759,8.315465,-0.19121914,88.0
15.092497,8.394169,-0.27534944,80.0
12.920105,8.97306,1.6304361,81.0
12.590587,9.016087,2.1221874,91.0
10.467207,8.513738,0.5808994,63.0
11.975401,9.028111,0.5769126,70.0
10.179869,8.518,1.0237321,79.0
12.770582,8.914493,0.5320559,84.0
12.493491,8.994459,1.0447305,92.0
10.337955,8.467983,-0.336173,64.0
11.01845,8.364412,-0.425038,92.0
10.100541,8.489425,0.1042287,71.0
11.562125,9.035462,0.048900053,94.0
11.968911,8.399386,-0.4998453,1.0
13.129219,8.522281,-0.6265648,40.0
12.376083,8.949261,-0.0007703344,49.0
10.382055,8.522369,1.5004673,63.0
11.837581,9.06335,1.5966768,88.0
13.522284,8.30611,-0.19061397,82.0
14.875633,8.396618,-0.27385265,77.0
12.753055,8.9761305,1.6152364,130.0
12.440877,9.027482,2.1054251,93.0
10.327295,8.508091,0.57493997,88.0
11.840567,9.043865,0.57224625,124.0
10.054803,8.52114,1.0155337,72.0
11.507321,9.056904,1.0689957,163.0
12.624684,8.930969,0.5273279,94.0
12.332117,8.996251,1.03477,127.0
13.2316265,8.919997,0.98892784,48.0
10.201543,8.463693,-0.33457047,106.0
10.908552,8.389677,-0.42354375,97.0
9.984654,8.49948,0.10272437,68.0
11.4329195,9.050931,0.04772925,77.0
11.733593,8.344387,-0.49430203,1.0
12.689341,8.351259,-0.6121489,46.0
12.247086,8.9735565,-0.0015780989,103.0
13.082122,8.877372,-0.101564944,130.0
10.26427,8.534029,1.4902909,69.0
11.6892605,9.067054,1.5832645,99.0
13.340918,8.310375,-0.19010857,85.0
14.671497,8.40362,-0.27246732,77.0
12.615578,8.998271,1.60406,80.0
12.29471,9.039703,2.0892406,82.0
13.222368,8.986618,2.1145306,103.0
10.204718,8.515126,0.57015115,72.0
11.6933565,9.048519,0.56681806,89.0
9.946711,8.537349,1.009254,59.0
12.483954,8.949467,0.5228578,82.0
12.241707,9.048621,1.0315521,102.0
13.0401325,8.910834,0.9773729,169.0
10.080886,8.470913,-0.33326468,59.0
10.738767,8.367281,-0.42047217,91.0
9.870555,8.509725,0.101256736,61.0
10.608939,8.509356,0.03523217,52.0
11.659867,8.40272,-0.49365863,1.0
12.608323,8.412001,-0.611088,25.0
12.094212,8.978672,-0.0026551182,40.0
12.348223,8.49444,-0.1034513,64.0
10.148266,8.545827,1.4803567,66.0
11.546055,9.072929,1.5705458,90.0
13.1498995,8.306271,-0.18956326,90.0
14.469597,8.409394,-0.27109793,74.0
12.462237,9.007378,1.5906487,144.0
12.18535,9.077689,2.0797036,100.0
13.025263,8.973077,2.0905206,161.0
10.096172,8.532582,0.56632006,72.0
11.54341,9.049222,0.5611994,105.0
9.855331,8.56694,1.0048932,84.0
10.583792,8.549439,0.98337936,93.0
12.340263,8.964197,0.5182157,92.0
12.100101,9.061892,1.0234305,121.0
12.926434,8.9529085,0.9724409,95.0
9.949897,8.467864,-0.33175117,56.0
10.58227,8.352979,-0.41773266,143.0
9.7552185,8.517555,0.099752404,100.0
10.479118,8.514168,0.033985008,54.0
11.463283,8.37067,-0.48925373,1.0
12.353019,8.354701,-0.6034744,78.0
11.98487,9.014742,-0.003247479,118.0
12.260121,8.547884,-0.10354768,173.0
10.043081,8.56554,1.4721186,72.0
11.406353,9.079837,1.5582896,77.0
12.976292,8.310905,-0.18908444,92.0
14.20787,8.377487,-0.2691712,86.0
12.330108,9.030209,1.5801429,88.0
13.22671,8.959323,1.5486424,51.0
12.046019,9.091966,2.064675,93.0
12.906868,9.011737,2.0799117,76.0
9.986297,8.547711,0.5623826,76.0
11.420547,9.069485,0.55719966,79.0
9.725147,8.561433,0.995997,84.0
10.4603615,8.559073,0.9759845,53.0
12.229037,9.00121,0.51529294,86.0
13.050676,8.886471,0.44001672,163.0
11.966751,9.079779,1.016075,121.0
12.760422,8.957296,0.9629997,112.0
9.861703,8.500131,-0.3310686,66.0
10.543651,8.430521,-0.41810623,68.0
9.596794,8.485791,0.09718403,51.0
10.328013,8.4999275,0.032381512,60.0
11.2258215,8.305506,-0.483562,1.0
12.232616,8.385902,-0.6009157,25.0
11.831061,9.015791,-0.0043424484,37.0
12.235601,8.645482,-0.103465065,72.0
9.948519,8.566055,1.463396,76.0
10.624016,8.540864,1.4479845,46.0
12.809484,8.289213,-0.18857904,109.0
14.083992,8.3942795,-0.26839098,66.0
12.233143,9.047957,1.572543,109.0
13.011842,8.903838,1.5265858,169.0
11.924423,9.088542,2.0502248,98.0
12.747625,8.99043,2.0598106,123.0
9.850833,8.512261,0.55567825,71.0
10.617815,8.515642,0.51082194,66.0
9.60885,8.539546,0.98710084,96.0
10.33529,8.538576,0.9669463,75.0
12.109587,9.001416,0.5111667,96.0
12.939431,8.900389,0.43694395,101.0
11.851093,9.080182,1.009026,133.0
12.63825,8.960892,0.9560949,127.0
9.758264,8.491274,-0.32982218,62.0
10.5240555,8.496411,-0.41864583,85.0
10.087699,8.58716,2.2052,10.0
9.514989,8.493568,0.09615669,101.0
10.223161,8.494921,0.031312518,96.0
11.234557,8.394286,-0.4850468,1.0
11.964308,8.285576,-0.59224117,1.0
11.714029,9.014017,-0.005186114,54.0
12.502703,8.92221,-0.10259762,110.0
9.797375,8.543431,1.4476466,61.0
10.4884,8.541085,1.4357283,51.0
12.646878,8.296979,-0.18814012,76.0
13.902514,8.405163,-0.26719674,81.0
12.096609,9.064942,1.5613668,120.0
12.919653,8.960527,1.5219644,75.0
11.795105,9.107551,2.0369306,93.0
12.623152,9.022071,2.048085,79.0
9.738622,8.5226,0.5515279,96.0
10.480269,8.514291,0.5056794,61.0
9.522471,8.570377,0.9832633,92.0
10.204907,8.539504,0.95872974,73.0
11.965093,9.011092,0.5064387,101.0
12.778227,8.908496,0.43226162,133.0
11.669493,9.057699,0.99692017,131.0
12.486018,8.971565,0.947781,90.0
9.6163225,8.474271,-0.32807127,130.0
10.349579,8.463817,-0.41540822,62.0
9.9782095,8.602814,2.192867,32.0
9.494022,8.582739,0.09696389,77.0
10.089918,8.4921465,0.029988997,52.0
11.035094,8.353472,-0.4804934,1.0
11.794087,8.278066,-0.5877479,1.0
11.581533,9.0283165,-0.0060477294,112.0
12.365287,8.942099,-0.1028271,95.0
9.652856,8.524516,1.4328665,87.0
10.350135,8.537419,1.4230096,56.0
12.464719,8.289713,-0.18762141,82.0
13.663449,8.378628,-0.26546112,74.0
11.958768,9.079367,1.549967,97.0
12.744206,8.958186,1.5066298,114.0
11.628651,9.095981,2.0167,99.0
12.4458065,9.014238,2.0271463,132.0
9.613238,8.519924,0.54641986,115.0
10.360152,8.525488,0.50158453,77.0
9.518427,8.675751,0.98919404,85.0
10.091672,8.553284,0.9523209,76.0
11.8320675,9.027809,0.5023124,83.0
12.6484785,8.936805,0.42896935,99.0
11.54502,9.077747,0.99033093,132.0
12.345454,8.988887,0.94045347,121.0
9.506272,8.483835,-0.32694355,65.0
10.222188,8.467564,-0.41341585,124.0
9.858512,8.608369,2.1782007,10.0
9.485564,8.684153,0.09810131,79.0
9.964738,8.494511,0.028792739,58.0
10.895229,8.355593,-0.47777128,1.0
11.6929245,8.317314,-0.5858757,1.0
11.446188,9.038825,-0.0069452454,42.0
12.223273,8.957076,-0.103070356,119.0
9.556252,8.54655,1.4258399,99.0
10.23523,8.551426,1.4137598,99.0
12.311321,8.299533,-0.18721576,96.0
13.483062,8.385261,-0.26426688,70.0
11.822799,9.093633,1.5387907,127.0
12.613082,8.985098,1.496967,90.0
11.512393,9.12208,2.0057178,91.0
12.328194,9.047813,2.0165372,73.0
13.199984,8.957661,2.0195522,131.0
9.520928,8.545411,0.54365295,92.0
10.231092,8.527854,0.49691817,77.0
9.5119705,8.780056,0.9949504,86.0
9.966554,8.555613,0.9445973,77.0
11.67404,9.023626,0.4968107,97.0
12.484724,8.939446,0.42414072,135.0
10.950218,8.7207365,0.9374637,49.0
12.227668,9.021352,0.93509877,95.0
13.05203,8.9002695,0.89318925,170.0
9.475001,8.563546,-0.3273887,71.0
10.0890255,8.464915,-0.41125748,52.0
9.725828,8.601026,2.1605346,21.0
9.4805975,8.789884,0.0993488,78.0
9.841444,8.496943,0.027621932,91.0
10.773125,8.369808,-0.47559357,1.0
10.620098,8.493599,-0.015794754,31.0
12.084778,8.973004,-0.10330442,98.0
9.500895,8.60509,1.4255975,73.0
10.10234,8.548957,1.4017348,44.0
12.143449,8.29758,-0.18675025,83.0
13.325145,8.403801,-0.26327962,76.0
11.663635,9.088196,1.5242616,102.0
12.453071,8.9898,1.483523,119.0
10.716409,8.599841,1.8672837,46.0
12.20429,9.07555,2.0048115,130.0
13.065127,8.986408,2.0066788,125.0
9.508369,8.642743,0.54663265,81.0
10.108528,8.534082,0.49263275,78.0
9.506031,8.885984,1.0008812,83.0
9.844819,8.5593195,0.93720245,77.0
11.541679,9.037562,0.49268445,100.0
12.355444,8.964991,0.42084846,101.0
10.605316,8.554809,0.9088082,135.0
12.092367,9.039577,0.928194,140.0
12.958123,8.955955,0.8901926,112.0
9.474037,8.671601,-0.32845706,86.0
9.980715,8.481609,-0.4097632,77.0
9.612752,8.60943,2.1472015,25.0
9.490687,8.9109745,0.10099989,86.0
9.733591,8.511306,0.02670565,48.0
10.542994,8.297337,-0.47000083,1.0
11.349942,8.290603,-0.57670194,41.0
10.529272,8.529889,-0.016225563,1.0
11.959367,8.997149,-0.10350178,99.0
9.493389,8.707631,1.4333512,86.0
9.97895,8.552901,1.3910974,54.0
11.974449,8.292707,-0.18627809,86.0
13.145609,8.406713,-0.26208538,82.0
11.52371,9.095923,1.5124148,133.0
12.315998,9.009261,1.4730198,97.0
10.583939,8.603225,1.8525443,71.0
12.080527,9.102088,1.9930859,79.0
13.2519865,8.961991,1.4721104,67.0
12.927186,9.011546,1.9932692,84.0
9.4964285,8.741608,0.5497188,85.0
9.983252,8.536517,0.48815686,77.0
9.499134,8.992183,1.006812,91.0
9.721936,8.560522,0.9296432,73.0
11.4143,9.0539255,0.48881605,73.0
12.213443,8.979811,0.4169709,130.0
10.471155,8.555545,0.90083975,65.0
11.966876,9.063674,0.9221347,109.0
13.107976,8.897392,0.3653779,54.0
12.801974,8.967221,0.882245,104.0
9.469157,8.777257,-0.32946607,83.0
9.852866,8.480352,-0.4077293,77.0
9.504345,8.620724,2.1348686,77.0
9.479368,9.013214,0.10213731,75.0
9.60196,8.503473,0.02538213,97.0
10.535934,8.39963,-0.47143614,31.0
10.639829,8.58881,2.1790526,80.0
11.225244,8.308341,-0.5738936,65.0
10.370469,8.509453,-0.017446185,19.0
11.194035,8.533569,-0.10554419,80.0
9.516252,8.811721,1.4440122,87.0
9.875355,8.545332,1.3813851,65.0
11.833731,8.277824,-0.18586577,93.0
12.93941,8.361327,-0.26050898,71.0
10.75725,8.571881,1.408252,38.0
12.22857,9.034166,1.467138,133.0
10.434799,8.563703,1.8320248,45.0
11.947573,9.090683,1.9771725,151.0
13.012605,8.889387,1.448069,168.0
12.784196,9.001489,1.9766413,109.0
9.509181,8.836648,0.5536563,96.0
9.883859,8.532646,0.48444283,78.0
9.525692,9.103025,1.0151848,82.0
9.618833,8.550719,0.92274135,76.0
10.623738,8.506998,0.44755337,50.0
12.119591,8.999207,0.41462976,121.0
10.335469,8.525973,0.891339,88.0
11.849476,9.063102,0.9155117,118.0
12.96213,8.887712,0.36137706,146.0
12.674933,8.967401,0.87547,110.0
9.493302,8.883371,-0.33080152,94.0
9.747804,8.470395,-0.40594447,77.0
9.437398,8.641486,2.1288688,62.0
9.504493,9.122972,0.103861794,85.0
9.5229645,8.514033,0.02472037,62.0
10.507125,8.457978,-0.4717826,27.0
10.548796,8.597616,2.1685083,85.0
11.278935,8.430427,-0.5775132,97.0
10.236428,8.480257,-0.018541154,1.0
11.109273,8.552129,-0.105672695,170.0
9.506971,8.914866,1.4517657,88.0
9.763122,8.556238,1.3723664,55.0
11.673908,8.275523,-0.18542686,89.0
12.797879,8.384493,-0.25966507,82.0
10.595052,8.55176,1.3926053,103.0
12.106217,9.062043,1.4585255,79.0
10.329107,8.586006,1.8221986,47.0
11.817992,9.110052,1.9643301,91.0
12.936879,8.957354,1.4456648,95.0
12.643571,9.021665,1.9626952,90.0
9.510111,8.949689,0.5578066,99.0
9.760776,8.534201,0.4800622,82.0
9.522634,9.21543,1.0218133,85.0
9.536731,8.585692,0.919619,74.0
10.48328,8.502962,0.44273937,48.0
11.974876,9.00921,0.41060588,112.0
10.214449,8.534385,0.8845965,69.0
11.675475,9.047109,0.90508413,111.0
12.804348,8.89812,0.35743973,67.0
12.524355,8.979292,0.86791325,113.0
9.477883,8.981421,-0.33163247,67.0
9.632761,8.47741,-0.40424266,95.0
9.384364,8.701951,2.1292021,85.0
9.507117,9.24114,0.10540281,77.0
9.498974,8.600497,0.025229417,52.0
10.368653,8.454208,-0.46906045,24.0
10.418535,8.600767,2.1525319,50.0
10.948149,8.291539,-0.56665444,57.0
10.132451,8.501907,-0.019133516,1.0
11.102686,8.658591,-0.10553501,69.0
9.508269,9.029196,1.4614575,80.0
9.643703,8.559492,1.3621916,100.0
11.519455,8.275051,-0.18500791,99.0
12.614885,8.378606,-0.25842306,76.0
10.461198,8.552627,1.3809819,54.0
11.957031,9.068345,1.4463419,115.0
10.206918,8.593277,1.8091934,80.0
11.648018,9.096518,1.9442289,113.0
12.7859535,8.972042,1.4340447,120.0
12.498386,9.036942,1.9479446,116.0
9.522985,9.075509,0.56291467,78.0
9.633573,8.530581,0.47539586,73.0
9.532744,9.342122,1.0301862,81.0
9.53275,8.691023,0.9252063,74.0
10.363341,8.51402,0.43904293,86.0
11.849612,9.032266,0.40745994,128.0
10.105896,8.551937,0.87907994,61.0
11.550848,9.067411,0.89902484,102.0
12.648583,8.908052,0.3535659,111.0
12.37897,8.993173,0.86074734,112.0
9.486097,9.103205,-0.3329679,89.0
9.518018,8.483316,-0.40254083,92.0
9.34822,8.778262,2.1335351,76.0
9.507208,9.358295,0.10690714,86.0
9.484604,8.696439,0.025916629,94.0
10.256823,8.470719,-0.46717972,1.0
10.306807,8.617847,2.1403897,47.0
10.819623,8.301867,-0.56365895,58.0
10.019477,8.514802,-0.019833578,1.0
11.436133,9.033854,-0.10440136,141.0
9.519935,9.154918,1.4730878,83.0
9.527592,8.564237,1.3524791,55.0
11.381624,8.284761,-0.18465546,88.0
12.362737,8.3239355,-0.25651225,86.0
10.344571,8.56612,1.3718175,83.0
11.81772,9.080391,1.4354186,101.0
10.103094,8.614789,1.7996562,45.0
11.52533,9.118007,1.9325032,78.0
12.648318,8.994433,1.4240274,97.0
12.347124,9.046059,1.9321213,95.0
13.214889,8.958695,1.9083338,85.0
9.510258,9.178226,0.56621367,85.0
9.535102,8.551,0.4725389,88.0
9.534576,9.462274,1.0376868,97.0
9.524887,8.7939415,0.93046486,70.0
10.259021,8.536712,0.43620613,45.0
11.692863,9.0297165,0.40285078,116.0
10.005088,8.574965,0.87432957,98.0
11.331074,9.010895,0.8843698,66.0
12.5110855,8.929178,0.35039064,92.0
12.262811,9.026919,0.85592663,115.0
13.062079,8.899624,0.80357146,159.0
9.500314,9.232422,-0.33445174,80.0
9.485338,8.561676,-0.40312195,67.0
9.321505,8.863958,2.1402018,68.0
9.524582,9.494194,0.108888455,71.0
9.494352,8.815632,0.027036529,51.0
10.137537,8.479735,-0.4650515,1.0
10.165183,8.608301,2.121857,35.0
9.884036,8.507011,-0.020802895,1.0
10.641256,8.516761,-0.10656768,37.0
9.524712,9.275591,1.4837489,79.0
9.523614,8.66932,1.3603415,54.0
11.228052,8.281174,-0.1842365,102.0
12.311846,8.402574,-0.2565282,74.0
10.234274,8.583607,1.363547,72.0
11.655167,9.072753,1.4213444,114.0
9.960515,8.601647,1.7826048,56.0
10.715918,8.589385,1.7968204,42.0
12.493169,9.002631,1.4118063,123.0
12.245528,9.090322,1.9246119,115.0
13.020881,8.947355,1.8869654,157.0
9.523711,9.307705,0.5715346,89.0
9.519692,8.6456,0.47501493,62.0
9.539482,9.587058,1.0457108,78.0
9.524854,8.905256,0.93670946,76.0
10.10447,8.51586,0.4305325,56.0
11.5508,9.036622,0.39890006,117.0
9.853259,8.552542,0.86436903,85.0
10.599189,8.539695,0.8232133,100.0
12.362497,8.940716,0.34677082,92.0
12.132335,9.048804,0.8499333,106.0
12.930268,8.92943,0.79810005,112.0
9.501891,9.350936,-0.33569816,80.0
9.493434,8.677668,-0.40486526,85.0
9.30973,8.964685,2.1505349,68.0
9.529379,9.619295,0.110576235,81.0
9.486925,8.920244,0.027876455,66.0
10.007881,8.478525,-0.46257684,1.0
10.021097,8.594743,2.1026852,56.0
10.546203,8.305091,-0.55698144,122.0
9.756619,8.504439,-0.02168246,1.0
10.487985,8.502994,-0.10686142,69.0
9.5227,9.391098,1.4934407,75.0
9.512838,8.769313,1.3672789,98.0
11.08458,8.283183,-0.18385744,109.0
12.090882,8.363944,-0.25490403,80.0
10.080297,8.562665,1.3487943,82.0
11.5275755,9.090482,1.4118916,80.0
9.81999,8.588362,1.7658424,55.0
10.570919,8.58303,1.7803487,66.0
12.356079,9.022169,1.4017891,98.0
13.230346,8.9327,1.3457457,42.0
12.105889,9.105024,1.9106659,105.0
12.90575,8.988252,1.8778074,61.0
9.525988,9.427862,0.5761106,84.0
9.516723,8.752494,0.47834802,77.0
9.559925,9.729354,1.055828,91.0
9.5223465,9.015548,0.9427897,77.0
9.982464,8.520698,0.4266641,38.0
11.424797,9.054493,0.395681,93.0
9.726041,8.549655,0.8568604,116.0
10.4540205,8.5318365,0.8148993,63.0
12.235202,8.96613,0.3439766,90.0
13.079446,8.882687,0.25721025,127.0
12.003662,9.070614,0.8440704,138.0
12.778955,8.9442215,0.79120135,100.0
9.506596,9.474073,-0.33703363,75.0
9.485749,8.780537,-0.40619352,77.0
9.545543,9.757713,0.11259424,80.0
9.484357,9.030617,0.02881819,58.0
9.866521,8.465589,-0.45970622,1.0
9.911822,8.609549,2.0908628,79.0
10.659659,8.50308,-0.56359655,44.0
9.634121,8.504582,-0.022508176,1.0
10.344596,8.49524,-0.10712762,64.0
9.543455,9.530829,1.5072516,89.0
9.514269,8.881691,1.3762976,49.0
10.955865,8.294606,-0.18353823,102.0
11.988916,8.405374,-0.25442633,87.0
9.945047,8.555713,1.3367239,82.0
10.720381,8.565431,1.3106414,53.0
9.712576,8.6025715,1.7554381,62.0
10.449398,8.594029,1.7680646,52.0
12.240017,9.055757,1.3943764,133.0
12.986446,8.887678,1.3246387,144.0
11.976001,9.125554,1.898329,116.0
12.728979,8.984667,1.8589828,114.0
9.541214,9.5625725,0.58175075,85.0
9.514246,8.861049,0.48177636,76.0
9.562329,9.855098,1.063852,80.0
9.5231495,9.130289,0.94936293,71.0
9.838156,8.504704,0.4215063,33.0
10.609376,8.519061,0.3601246,62.0
9.606688,8.552152,0.85011786,103.0
10.321689,8.532643,0.80771273,78.0
12.120904,8.99985,0.3416904,85.0
12.936012,8.904719,0.25456217,140.0
11.870447,9.08752,0.8378165,127.0
12.627971,8.957467,0.7843026,150.0
9.525585,9.613285,-0.33869553,88.0
9.50052,8.905494,-0.4081859,94.0
9.553406,9.889509,0.11442879,79.0
9.4966345,9.156551,0.0300399,97.0
9.727229,8.452526,-0.4568851,1.0
9.792397,8.614178,2.0768034,118.0
10.511061,8.493392,-0.5597897,89.0
9.520941,8.511536,-0.023226188,1.0
10.220196,8.501344,-0.10733875,77.0
9.557068,9.634982,1.5174282,73.0
9.527329,8.978114,1.385085,107.0
10.829369,8.279203,-0.18317248,115.0
11.800504,8.356806,-0.2529773,77.0
9.8491745,8.554176,1.3284535,101.0
10.583807,8.5385685,1.2976176,89.0
9.610055,8.592746,1.7432998,63.0
10.312676,8.563614,1.750476,67.0
12.127136,9.060835,1.3855611,109.0
12.900152,8.918258,1.3196398,99.0
11.851271,9.118928,1.884383,86.0
12.594342,8.979032,1.8444828,98.0
9.557725,9.67002,0.5864332,85.0
9.533604,8.963162,0.48577607,95.0
9.587466,9.974851,1.0729226,93.0
9.544567,9.237344,0.9567578,75.0
9.754371,8.512801,0.41901332,59.0
10.47585,8.493579,0.3557349,76.0
9.541101,8.574627,0.84751284,95.0
10.22769,8.536527,0.80278075,92.0
12.004865,9.001604,0.33876917,104.0
12.813398,8.909755,0.25211397,107.0
11.734431,9.071213,0.83012944,121.0
12.507646,8.961166,0.7785933,110.0
9.536126,9.715236,-0.33988258,78.0
9.493358,8.983095,-0.40918207,74.0
9.575716,10.006758,0.11626334,81.0
9.516531,9.262478,0.031159801,51.0
9.634757,8.45204,-0.45515284,1.0
9.680935,8.59719,2.061466,93.0
10.373219,8.463363,-0.55585814,54.0
9.507411,8.580468,-0.022903083,1.0
10.11408,8.4942045,-0.1075361,79.0
9.57263,9.772959,1.5307544,86.0
9.522546,9.087091,1.39341,43.0
10.698167,8.285731,-0.18283996,95.0
11.685958,8.386561,-0.25237224,82.0
9.728171,8.556718,1.3183949,78.0
10.451308,8.540832,1.2869043,60.0
9.550016,8.6476345,1.7421439,66.0
10.187342,8.568437,1.7373544,68.0
11.987546,9.074286,1.3751432,123.0
12.768772,8.946667,1.3111229,92.0
11.653208,9.083359,1.8602457,104.0
12.450762,8.995367,1.8307459,104.0
9.563635,9.798584,0.5915413,88.0
9.520569,9.064145,0.488633,64.0
9.593078,10.107248,1.0816443,78.0
9.547644,9.35703,0.96382403,75.0
9.637897,8.518245,0.41540283,68.0
10.343407,8.494659,0.3520037,86.0
9.531217,8.674743,0.85210997,82.0
10.088422,8.528625,0.79488957,76.0
11.863793,9.0126505,0.33540338,108.0
12.663922,8.924561,0.24926604,107.0
11.589308,9.075734,0.82283324,129.0
12.362152,8.9751835,0.7720514,113.0
9.545771,9.848299,-0.3413961,73.0
9.503239,9.1061,-0.41109145,86.0
9.575731,10.133676,0.11795112,78.0
9.515203,9.378155,0.032177895,56.0
9.524743,8.461858,-0.45327207,1.0
9.566625,8.603623,2.0483654,99.0
10.242694,8.464817,-0.5527378,92.0
10.659572,8.590295,2.0567935,56.0
9.499008,8.681934,-0.022346623,1.0
9.978138,8.487737,-0.10778394,79.0
9.575808,9.900075,1.5421424,76.0
9.5224905,9.201875,1.4026599,55.0
10.557885,8.283519,-0.18246756,153.0
11.482455,8.350641,-0.25089136,83.0
9.611973,8.562052,1.3090068,99.0
10.314599,8.537971,1.275561,80.0
9.540645,8.749002,1.751103,65.0
10.059337,8.569461,1.7236745,80.0
11.849847,9.087558,1.3649255,108.0
12.609919,8.954216,1.2994586,115.0
11.550846,9.120717,1.852468,88.0
12.310682,9.012595,1.8175179,105.0
9.577991,9.937683,0.5973943,86.0
9.538326,9.19577,0.49358505,75.0
9.608284,10.251753,1.0917615,93.0
9.566593,9.493939,0.97286224,74.0
9.530663,8.530573,0.41230813,86.0
10.209828,8.493138,0.3481993,89.0
9.520449,8.775071,0.85670716,90.0
9.975456,8.541329,0.78939396,92.0
11.732555,9.029611,0.33241862,93.0
12.521283,8.942481,0.24661799,114.0
11.457088,9.088733,0.8165794,115.0
12.242736,9.006623,0.7674126,113.0
9.561019,9.989098,-0.343058,87.0
9.511947,9.229582,-0.4130008,75.0
9.589511,10.277089,0.1200425,73.0
9.5241375,9.505462,0.033399604,97.0
9.477325,8.526895,-0.45347005,1.0
9.486142,8.639591,2.0426137,103.0
10.121773,8.472653,-0.5499919,60.0
10.582386,8.638382,2.0522645,45.0
9.524877,8.816291,-0.021359354,1.0
9.871508,8.504657,-0.107944585,80.0
9.5859785,10.036241,1.5549842,82.0
9.54554,9.340597,1.415841,60.0
10.613533,8.435719,-0.18292642,57.0
11.279871,8.3125,-0.24941051,107.0
9.525567,8.592937,1.3040893,84.0
10.187498,8.541386,1.265478,80.0
9.543406,8.862734,1.7626634,110.0
9.93773,8.574383,1.7111113,85.0
11.684201,9.077446,1.3511018,113.0
12.466041,8.970573,1.2894605,101.0
10.859443,8.684665,1.742509,39.0
12.197992,9.048476,1.8086143,109.0
9.5841,10.070102,0.6027152,83.0
9.547645,9.321008,0.49806094,71.0
9.616645,10.390987,1.1011809,78.0
9.568708,9.615935,0.98009276,73.0
9.516789,8.626583,0.41462916,59.0
10.090454,8.501846,0.34505337,83.0
9.521895,8.887872,0.8626834,93.0
9.853676,8.545126,0.78305286,78.0
11.57008,9.020653,0.32816377,107.0
12.359468,8.944924,0.24337035,115.0
10.647637,8.554434,0.7535196,55.0
12.107392,9.025009,0.76158434,134.0
9.558414,10.113009,-0.34436378,79.0
9.512334,9.346534,-0.4147026,85.0
9.599158,10.418128,0.12206051,79.0
9.530436,9.63183,0.034595862,51.0
9.466359,8.625394,-0.45490536,1.0
9.404137,8.673547,2.036543,107.0
9.998107,8.476726,-0.54712117,75.0
10.40738,8.605355,2.0284116,22.0
9.502806,8.907473,-0.020946497,1.0
9.739408,8.4982605,-0.10818325,73.0
9.597533,10.175815,1.5683105,80.0
9.548846,9.46182,1.4260159,48.0
10.532313,8.47962,-0.18280672,152.0
11.230628,8.385597,-0.24944235,73.0
9.521206,8.698274,1.3116891,85.0
10.071391,8.552538,1.2568654,82.0
9.527838,8.9605465,1.7707555,45.0
9.810489,8.572913,1.6974313,87.0
11.558207,9.096435,1.3422865,109.0
12.319237,8.983137,1.2790923,102.0
10.635459,8.615246,1.7130078,80.0
12.07264,9.073781,1.7976757,85.0
9.597114,10.21173,0.60867465,81.0
9.555763,9.446722,0.50253683,74.0
9.631684,10.539564,1.111647,86.0
9.569665,9.73833,0.98732334,76.0
9.512375,8.73223,0.41755193,67.0
9.96681,8.505506,0.34168795,85.0
9.51651,8.995546,0.86804676,99.0
9.723239,8.539847,0.7758662,95.0
11.439525,9.034837,0.325179,88.0
12.243309,8.978736,0.2415217,105.0
10.49473,8.540396,0.7451811,59.0
11.985062,9.05166,0.75670767,135.0
9.570976,10.254848,-0.34602568,68.0
9.521561,9.47371,-0.41669497,74.0
9.608751,10.5611725,0.1241152,80.0
9.545317,9.768648,0.035970286,57.0
9.466267,8.734955,-0.45673662,1.0
9.356658,8.739213,2.0381405,97.0
9.886941,8.48998,-0.54474974,77.0
10.268118,8.599617,2.0115035,23.0
9.492998,9.011136,-0.020372087,1.0
9.616784,8.498474,-0.10839437,72.0
9.603657,10.311563,1.58091,83.0
9.552408,9.584854,1.4364221,90.0
11.040402,8.3524275,-0.24807297,82.0
9.511524,8.799837,1.3186184,78.0
9.941959,8.55092,1.2463622,82.0
9.540035,9.085853,1.7846278,54.0
9.697026,8.581978,1.686264,80.0
11.318975,9.023489,1.3188461,45.0
12.211247,9.022563,1.2731675,100.0
10.470936,8.591219,1.6936979,56.0
11.923758,9.079874,1.7829213,112.0
9.6060095,10.350986,0.61442125,91.0
9.552778,9.563025,0.50634605,72.0
9.635904,10.6783695,1.120892,86.0
9.584752,9.876825,0.9963615,73.0
9.507006,8.83816,0.4204747,66.0
9.83595,8.501427,0.33795673,89.0
9.520214,9.113171,0.87448275,88.0
9.605202,8.543857,0.7698069,81.0
10.634129,8.506065,0.29469645,38.0
12.109544,8.998348,0.23912345,127.0
10.367033,8.545125,0.73892725,69.0
11.842243,9.061388,0.75028473,142.0
9.5821295,10.39724,-0.34768757,78.0
9.52251,9.594283,-0.4184798,86.0
9.610252,10.697298,0.12598644,73.0
9.547727,9.894533,0.037141092,101.0
9.465168,8.844854,-0.45856786,1.0
9.310157,8.805984,2.0400577,106.0
9.753349,8.482532,-0.54144216,72.0
10.147458,8.607792,1.9982184,25.0
9.516813,9.148342,-0.01936687,1.0
9.50947,8.510799,-0.1085596,96.0
9.628882,10.437063,1.5942363,80.0
9.570037,9.693284,1.4468282,45.0
10.284236,8.467554,-0.1821417,69.0
10.883185,8.31469,-0.24689464,95.0
9.526515,8.897556,1.327336,99.0
9.845912,8.549512,1.2385899,83.0
9.555518,9.187034,1.7964771,100.0
9.601758,8.578844,1.6759342,89.0
10.62136,8.548002,1.2340999,66.0
12.098298,9.027699,1.265021,113.0
10.346495,8.570802,1.6789473,79.0
11.811572,9.082849,1.7717283,84.0
9.62865,10.474166,0.6200614,76.0
9.580789,9.681666,0.5112981,70.0
9.654412,10.801,1.1299626,81.0
9.601743,9.987888,1.0039208,75.0
9.524901,8.939018,0.42399925,86.0
9.736966,8.496526,0.33510345,84.0
9.541597,9.220388,0.8813785,94.0
9.533617,8.561083,0.7668477,116.0
10.567521,8.534691,0.29361686,63.0
11.991769,8.999012,0.23677516,126.0
10.273027,8.54912,0.73436713,85.0
11.704523,9.043982,0.7431481,120.0
9.607066,10.523614,-0.3493198,78.0
9.550201,9.713083,-0.4206382,74.0
9.638042,10.830712,0.12815121,73.0
9.567426,10.008707,0.0383628,47.0
9.471307,8.93471,-0.46020114,1.0
9.307052,8.886632,2.0486848,116.0
9.648585,8.4717865,-0.5387587,78.0
10.013558,8.575924,1.9794986,50.0
9.518023,9.236331,-0.018810408,1.0
9.488578,8.572916,-0.10849994,66.0
9.636533,10.578179,1.6075627,80.0
9.57839,9.824241,1.4583906,90.0
10.16947,8.480674,-0.18187569,73.0
10.797477,8.357249,-0.24656026,76.0
9.529536,9.013323,1.3365004,77.0
9.726193,8.553516,1.2293472,82.0
9.561319,9.309113,1.8094823,47.0
9.531489,8.6244135,1.6728632,85.0
10.515065,8.571741,1.2272881,63.0
11.976141,9.054385,1.25743,97.0
10.242398,8.593526,1.670097,95.0
11.639908,9.068043,1.7531581,104.0
9.632341,10.611453,0.62559515,87.0
9.5924835,9.815861,0.51625013,73.0
9.656122,10.940715,1.1392076,80.0
9.611644,10.124529,1.0126302,79.0
9.520613,9.048324,0.42709395,58.0
9.617401,8.499406,0.33188435,89.0
9.534708,9.330445,0.88689506,97.0
9.515113,8.652973,0.7702297,62.0
10.396244,8.504548,0.28879043,37.0
11.855328,9.013783,0.234277,132.0
10.115475,8.525877,0.7255075,69.0
11.556188,9.046095,0.7362494,124.0
9.610271,10.661107,-0.35086298,78.0
9.560132,9.845955,-0.4227551,80.0
9.655459,10.988815,0.13053612,78.0
9.575846,10.14414,0.039686322,60.0
9.481386,9.057677,-0.46247783,1.0
9.299215,8.991671,2.0595489,90.0
9.533832,8.477877,-0.53620005,88.0
9.884701,8.574014,1.964402,55.0
9.546684,9.381592,-0.01771544,1.0
9.484768,8.678188,-0.108343884,71.0
9.646764,10.724234,1.6216159,78.0
9.593752,9.964256,1.4713405,47.0
10.025955,8.4681225,-0.18148334,48.0
10.541494,8.266039,-0.24450617,161.0
9.537209,9.134984,1.346559,89.0
9.611278,8.560319,1.2207346,84.0
9.563147,9.428842,1.8219097,56.0
9.532678,8.734885,1.6834722,83.0
10.373644,8.5652895,1.2158685,79.0
11.827226,9.059344,1.2466913,121.0
10.10826,8.589569,1.6558828,77.0
11.506315,9.080886,1.7406931,106.0
9.646663,10.762599,0.6320867,84.0
9.608425,9.956324,0.52158314,72.0
9.673445,11.100425,1.1507202,81.0
9.625665,10.267495,1.0219971,78.0
9.531138,9.173192,0.43113425,65.0
9.517575,8.518418,0.32961634,106.0
9.556511,9.4703,0.89562964,94.0
9.513464,8.761157,0.7753026,79.0
10.270349,8.509648,0.2858057,42.0
11.716007,9.024763,0.23167889,125.0
10.005617,8.541236,0.7206868,97.0
11.434915,9.067756,0.7313727,114.0
9.626728,10.815504,-0.3527326,77.0
9.561837,9.972126,-0.42466444,82.0
9.656875,11.130927,0.13251743,75.0
9.5938635,10.291758,0.04121346,105.0
9.488856,9.1797285,-0.46470505,1.0
9.291834,9.098344,2.0707324,105.0
9.486326,8.5429535,-0.5364497,71.0
9.769651,8.582547,1.9520227,68.0
9.524352,9.478125,-0.017248731,1.0
9.484414,8.78782,-0.10817406,79.0
9.648955,10.8634,1.6344576,79.0
9.598133,10.094786,1.4826716,92.0
9.907287,8.474945,-0.18119738,94.0
10.60067,8.42026,-0.2456367,48.0
9.546576,9.259867,1.3570647,75.0
9.527722,8.593943,1.2165334,82.0
9.579226,9.564363,1.837516,96.0
9.528491,8.841676,1.6932436,84.0
10.2266245,8.552286,1.2036474,92.0
11.662974,9.050606,1.2341012,39.0
9.989582,8.597219,1.6443505,89.0
10.7106695,8.564391,1.6196051,43.0
9.643604,10.896371,0.6373012,86.0
9.603652,10.077153,0.52558285,72.0
9.680056,11.250196,1.1610119,77.0
9.628773,10.400808,1.0302137,72.0
9.534752,9.29296,0.4348307,107.0
9.496491,8.607528,0.3312259,77.0
9.562875,9.596646,0.90283185,88.0
9.509369,8.868301,0.7802346,89.0
10.141745,8.510929,0.28269392,37.0
11.564396,9.024527,0.22868107,131.0
9.877876,8.539862,0.71430266,84.0
10.618859,8.531592,0.6734472,59.0
9.629758,10.956989,-0.35433516,78.0
9.571971,10.108854,-0.42686436,83.0
9.66987,11.2886915,0.13486566,75.0
9.602263,10.431182,0.042587884,48.0
9.490887,9.298025,-0.46678376,1.0
9.296074,9.217808,2.0847917,102.0
9.499024,8.662899,-0.53925794,73.0
9.660805,8.595224,1.9408512,60.0
9.567289,9.641566,-0.015938357,1.0
9.500584,8.914183,-0.107949175,86.0
9.664152,11.019453,1.6499646,75.0
9.612145,10.237331,1.4958527,46.0
9.79346,8.484549,-0.18093137,81.0
10.531954,8.474186,-0.24547748,137.0
9.550499,9.381042,1.3668998,86.0
9.52795,8.703183,1.2243056,80.0
9.592587,9.699046,1.8528334,50.0
9.521891,8.947403,1.7027358,80.0
10.09383,8.549373,1.1932294,97.0
11.532216,9.065964,1.2253993,152.0
9.871209,8.603721,1.6328182,80.0
10.577934,8.567958,1.6066314,91.0
9.664173,11.059135,0.6445377,83.0
9.612822,10.214294,0.5306301,70.0
9.698042,11.415687,1.1730479,89.0
9.640011,10.5448475,1.0395805,74.0
9.535814,9.411728,0.4384412,47.0
9.484983,8.706153,0.33334756,89.0
9.55825,9.71348,0.9089614,93.0
9.499944,8.971637,0.7847438,89.0
10.012012,8.509636,0.27951866,30.0
11.433666,9.038835,0.22633278,124.0
9.753549,8.539856,0.70817906,92.0
10.481325,8.530218,0.6670242,89.0
9.641855,11.111034,-0.3561751,72.0
9.587599,10.253392,-0.4292718,81.0
9.609286,10.5711155,0.043962307,62.0
9.508809,9.433631,-0.4694564,1.0
9.30335,9.341885,2.0998094,97.0
9.49294,8.767093,-0.54131734,77.0
9.549244,8.604231,1.9290758,82.0
9.562426,9.75871,-0.015220344,1.0
9.48214,9.0094595,-0.10782984,71.0
9.680361,11.179127,1.6659561,71.0
9.619331,10.374628,1.5081089,91.0
9.675402,8.489095,-0.18064542,106.0
10.399341,8.475873,-0.24466538,39.0
9.556088,9.505435,1.377182,86.0
9.51402,8.800629,1.2301874,85.0
9.590825,9.820094,1.8652606,90.0
9.511462,9.050668,1.7116697,77.0
9.969021,8.551621,1.1838132,90.0
11.406407,9.083754,1.2172527,45.0
9.741281,8.598564,1.6191404,80.0
10.416406,8.546333,1.5888244,56.0
9.670047,11.207444,0.6507099,83.0
9.616558,10.347561,0.5353917,72.0
9.64179,10.680569,1.0479614,75.0
9.542814,9.537947,0.4424815,63.0
9.48727,8.818555,0.33620086,85.0
9.5788965,9.857843,0.9180024,90.0
9.504032,9.088967,0.79066217,78.0
9.88875,8.512277,0.2765974,51.0
10.637644,8.520387,0.20270005,54.0
9.640052,8.547914,0.7029675,93.0
10.325722,8.512244,0.6591739,89.0
9.656291,11.270222,-0.35810408,81.0
9.593635,10.389721,-0.4314302,79.0
9.613588,10.710059,0.04531128,106.0
9.509908,9.554215,-0.47158462,1.0
9.494691,8.879728,-0.54375124,73.0
9.512545,8.680025,1.932699,68.0
9.571738,9.892002,-0.014304878,1.0
9.500399,9.140851,-0.10759118,78.0
9.70887,11.319667,1.6812209,73.0
9.6443615,10.500208,1.5208275,47.0
9.5695095,8.476142,-0.18035282,80.0
10.254143,8.438529,-0.2435826,74.0
9.579806,9.619469,1.3881347,86.0
9.526308,8.895506,1.2379597,71.0
9.618636,9.942095,1.880867,47.0
9.530212,9.154286,1.7236745,77.0
9.865518,8.543692,1.1753987,89.0
10.599074,8.524501,1.1261597,59.0
9.635637,8.586254,1.60734,81.0
10.319422,8.548586,1.579412,77.0
9.692263,11.34105,0.6568822,81.0
9.64087,10.472024,0.5405342,69.0
9.660552,10.803051,1.0565066,75.0
9.573603,9.659561,0.44712353,106.0
9.501075,8.915048,0.338981,102.0
9.594472,9.967616,0.9248982,86.0
9.527219,9.19729,0.79714423,92.0
9.788256,8.506238,0.2740572,62.0
10.516438,8.505164,0.20010194,113.0
9.549177,8.547909,0.6985377,114.0
10.219428,8.50599,0.65405935,87.0
9.620262,10.51733,-0.43375462,82.0
9.642869,10.8448,0.046838418,49.0
9.529255,9.664511,-0.4738613,1.0
9.508059,8.976434,-0.54612267,74.0
9.538524,8.786266,1.9465879,67.0
9.58167,9.996277,-0.0135689145,1.0
9.520438,9.246733,-0.107389234,79.0
9.650379,10.6399555,1.533315,92.0
9.50863,8.529412,-0.18031956,93.0
10.139391,8.451664,-0.24294569,74.0
9.581792,9.743331,1.3981934,85.0
9.523777,9.005664,1.2457321,82.0
9.614673,10.06395,1.8932942,90.0
9.537906,9.277405,1.736517,74.0
9.750388,8.551616,1.1671845,92.0
10.458739,8.520621,1.1157914,60.0
9.546236,8.614703,1.6009033,81.0
10.189425,8.549617,1.5666927,72.0
9.654292,10.619493,0.54615283,70.0
9.675733,10.95755,1.0668595,77.0
9.575519,9.783877,0.45099193,46.0
9.492757,9.019925,0.34139532,75.0
9.602984,10.102965,0.9328666,92.0
9.533536,9.319629,0.80348533,75.0
9.6641865,8.505388,0.27107245,53.0
10.368328,8.493926,0.19705416,64.0
9.527764,8.6372795,0.70140404,76.0
10.098533,8.513515,0.6488258,82.0
9.634535,10.666486,-0.43624508,81.0
9.645903,10.986225,0.04821284,61.0
9.543548,9.8016615,-0.47653395,1.0
9.512247,9.093922,-0.5487438,72.0
9.520774,8.881029,1.9544382,71.0
9.591424,10.1333685,-0.012617548,1.0
9.527842,9.37078,-0.10717811,77.0
9.656346,10.781669,1.5460335,47.0
9.508067,8.637485,-0.18055896,74.0
10.027943,8.466269,-0.2423406,84.0
9.596421,9.881873,1.4104873,87.0
9.537499,9.13262,1.2560252,76.0
9.625827,10.203444,1.9091896,49.0
9.557143,9.413466,1.751872,87.0
9.628122,8.551814,1.1579686,91.0
10.318875,8.515318,1.1054231,72.0
9.537208,8.716033,1.6092173,80.0
10.062854,8.551919,1.5544821,75.0
9.663566,10.764571,0.551581,72.0
9.677542,11.099157,1.0757333,73.0
9.577634,9.910035,0.45494625,60.0
9.503687,9.144419,0.34483388,85.0
9.612897,10.241725,0.9411414,85.0
9.54437,9.448013,0.8103901,91.0
9.544988,8.507315,0.2682782,97.0
10.237725,8.495184,0.19455598,89.0
9.527624,8.746997,0.70622474,87.0
9.977949,8.519859,0.6435923,94.0
9.640644,10.808781,-0.43852803,80.0
9.665906,11.149243,0.0499436,107.0
9.550955,9.933597,-0.47900862,1.0
9.511018,9.20765,-0.5511776,74.0
9.510844,8.984047,1.9641,67.0
9.605285,10.276828,-0.011594379,1.0
9.519868,9.48119,-0.10701288,75.0
9.666183,10.929818,1.5596771,90.0
9.497701,8.737747,-0.18075848,92.0
9.890839,8.457752,-0.24146482,84.0
9.598698,10.009489,1.420993,84.0
9.53713,9.24766,1.2644277,74.0
9.558193,9.533377,1.7638768,75.0
9.529879,8.572146,1.1519582,116.0
10.191733,8.518794,1.0965359,71.0
9.533092,8.822983,1.6186041,74.0
9.942679,8.558137,1.5432892,76.0
9.668739,10.907195,0.5568188,67.0
9.696187,11.262339,1.0869077,74.0
9.592315,10.051079,0.45976025,101.0
9.509124,9.265225,0.34805298,81.0
9.62009,10.37954,0.9492631,90.0
9.5440855,9.567026,0.8163085,77.0
9.51061,8.584562,0.2691038,47.0
10.104454,8.492571,0.19195789,88.0
9.52502,8.855691,0.71091515,82.0
9.8592,8.52633,0.63847774,83.0
9.641372,10.947075,-0.4406864,79.0
9.667305,11.293215,0.051343475,48.0
9.558453,10.067462,-0.48153275,1.0
9.52017,9.332897,-0.5541107,73.0
9.514302,9.100933,1.9767811,60.0
9.631261,10.435574,-0.0103917075,1.0
9.539087,9.62023,-0.10675586,74.0
9.667993,11.071041,1.5721645,45.0
9.496676,8.847778,-0.18100452,75.0
9.764838,8.456999,-0.24070051,85.0
9.607933,10.146192,1.4328398,85.0
9.541375,9.368619,1.2736704,75.0
9.565088,9.660695,1.7772776,84.0
9.534589,8.685551,1.1599721,73.0
10.075611,8.530003,1.0889449,70.0
9.546778,8.94787,1.6314772,88.0
9.82732,8.567089,1.5328593,77.0
9.679089,11.057813,0.56253266,73.0
9.710573,11.423156,1.0977536,75.0
9.601492,10.188327,0.46431634,45.0
9.51484,9.387861,0.35134524,92.0
9.638023,10.531104,0.95876384,91.0
9.562311,9.706274,0.8241997,90.0
9.499209,8.68333,0.27094543,93.0
9.9700985,8.487328,0.18930982,93.0
9.524324,8.967437,0.7158661,113.0
9.718206,8.5119505,0.63157904,96.0
9.643368,11.088815,-0.44292784,80.0
9.563277,10.200349,-0.48400745,1.0
9.491179,9.42206,-0.5554213,45.0
9.505287,9.207229,1.9870468,72.0
9.636788,10.5743265,-0.00944034,1.0
9.547122,9.749893,-0.106530964,74.0
9.683999,11.230748,1.5874269,90.0
9.490284,8.954015,-0.18123063,88.0
9.648273,8.462896,-0.24003173,78.0
9.617182,10.284856,1.4449102,86.0
9.548711,9.494194,1.2835433,75.0
9.573532,9.791301,1.7912368,80.0
9.520722,8.783131,1.1655817,89.0
9.941587,8.524563,1.079132,68.0
9.523382,9.03911,1.6376457,75.0
9.6973505,8.561825,1.5198855,75.0
9.680074,11.19993,0.5676752,73.0
9.614758,10.331943,0.4692163,53.0
9.523636,9.515162,0.354857,81.0
9.639746,10.667004,0.966579,85.0
9.572195,9.838986,0.83138627,73.0
9.520633,8.813578,0.2742477,52.0
9.848341,8.4911585,0.18706146,90.0
9.5226,9.079521,0.7208171,77.0
9.6166725,8.530524,0.6277728,93.0
9.660923,11.250708,-0.44570884,80.0
9.569519,10.33663,-0.4865811,1.0
9.253885,9.303207,-0.547558,98.0
9.618242,10.688252,-0.008794129,1.0
9.552509,9.878599,-0.10631066,78.0
9.7072115,11.365279,1.6010705,45.0
9.5145035,9.062191,-0.18153654,88.0
9.540814,8.448712,-0.2393152,80.0
9.642776,10.410362,1.4572041,88.0
9.576973,9.612243,1.2944666,78.0
9.601803,9.9130125,1.8063126,85.0
9.535937,8.880878,1.1733953,89.0
9.848538,8.52578,1.0726519,70.0
9.562131,9.16217,1.6529326,85.0
9.609442,8.565263,1.5117452,79.0
9.711771,11.343948,0.5738652,72.0
9.633573,10.450691,0.47351447,58.0
9.543523,9.625125,0.3582224,96.0
9.663736,10.79562,0.97516036,88.0
9.583959,9.944232,0.83730465,88.0
9.51837,8.895258,0.27596235,57.0
9.744793,8.482439,0.18496299,85.0
9.52996,9.1728115,0.7253772,82.0
9.518281,8.523896,0.623134,104.0
9.673975,11.373698,-0.44782573,54.0
9.5976095,10.465714,-0.4894022,1.0
9.290043,9.42775,-0.5511152,72.0
9.650145,10.826136,-0.0076812087,1.0
9.573748,9.994174,-0.10608577,77.0
9.514872,9.17742,-0.18180254,92.0
9.49947,8.519155,-0.23944257,76.0
9.646818,10.547104,1.4688274,85.0
