x,y,z,intensity
5.107901,2.325303,2.1927662,1.0
5.365737,2.3024266,1.9020841,1.0
5.2866993,2.3082187,1.8787793,84.0
4.605764,2.2271698,1.9956682,1.0
5.1552305,2.3190846,1.8403578,19.0
5.2191424,2.6647372,1.2963301,1.0
4.5800242,2.2502801,1.9905008,1.0
5.6523843,2.426756,1.6636157,60.0
5.0800414,2.324011,1.8183128,1.0
5.1348925,2.6622298,1.2790574,1.0
4.5392385,2.2656245,1.9786898,1.0
4.994652,2.3233197,1.7924885,1.0
5.0698314,2.668831,1.2666565,1.0
4.437225,2.2492003,1.9395654,1.0
4.9438553,2.3377497,1.7792614,1.0
4.393321,2.2615995,1.926278,1.0
4.846799,2.3296058,1.7490281,58.0
4.351358,2.2658365,1.9122523,1.0
4.801565,2.3359416,1.7364309,34.0
4.255055,2.2493503,1.8753426,1.0
5.6449056,2.3416657,1.9443599,1.0
5.4225187,2.666481,1.3028688,73.0
4.2310333,2.2707255,1.8709134,1.0
5.5933237,2.3614233,1.9314172,1.0
4.857455,2.7445774,1.232554,1.0
5.3689117,2.6822958,1.293794,81.0
4.158057,2.2650027,1.8443384,1.0
4.4906836,2.2916362,1.6375427,1.0
5.4771285,2.3526213,1.8956705,1.0
4.8249187,2.7662573,1.228568,1.0
5.304855,2.6922762,1.2821263,106.0
4.06098,2.2448583,1.8066905,1.0
4.536995,2.3510053,1.6602178,104.0
5.361269,2.342454,1.8599238,1.0
4.8124895,2.7994788,1.2298967,1.0
4.0063677,2.2474155,1.7882357,1.0
5.7373376,2.3871992,2.3288054,1.0
4.473316,2.354026,1.6419518,64.0
5.2891574,2.3503942,1.8395852,1.0
4.794805,2.8296611,1.2298967,1.0
5.1683474,2.705646,1.2566303,7.0
3.9599419,2.2540097,1.7734717,1.0
5.574403,2.3600307,2.2676332,28.0
4.363268,2.4794767,1.3907745,1.0
5.2310085,2.3638391,1.8241771,1.0
4.7685823,2.8546922,1.2276822,1.0
5.128788,2.7262294,1.2510126,1.0
3.9235656,2.2576969,1.7616607,1.0
5.403689,2.3172088,2.2014818,12.0
4.3115926,2.4768472,1.3776579,73.0
5.1230807,2.3437867,1.7896632,1.0
4.733433,2.8639271,1.2219247,30.0
5.1279464,2.7567983,1.2540375,1.0
5.2932243,2.3089252,2.1616488,50.0
4.8956547,2.2677526,2.337093,46.0
5.0634737,2.354905,1.7736388,1.0
4.750174,2.9151614,1.2312254,59.0
5.0864806,2.7759514,1.2479876,16.0
5.157492,2.287885,2.111146,34.0
4.8168316,2.2678096,2.3056822,41.0
4.969588,2.3489788,1.745288,1.0
4.7119393,2.9325109,1.2259107,71.0
5.0655155,2.8059752,1.2471234,1.0
5.0545588,2.279954,2.0741582,56.0
4.7645764,2.2797108,2.2871578,14.0
4.6802497,2.5017078,1.4304715,1.0
4.253654,2.4039557,1.5858942,1.0
5.576157,2.3379998,1.8646275,1.0
4.6835475,2.955777,1.2232533,70.0
5.0409627,2.8339434,1.2453948,1.0
4.9247937,2.2582536,2.0257895,58.0
4.6581354,2.26442,2.2420547,49.0
4.611801,2.502763,1.4139704,1.0
4.185647,2.400636,1.5657387,161.0
5.4980884,2.3462443,1.8430455,1.0
4.6698003,2.988318,1.224582,60.0
4.84455,2.2581027,1.9980485,78.0
4.5258675,2.2348096,2.1840649,92.0
4.604446,2.5363083,1.4166318,1.0
5.3991055,2.344554,1.8142695,1.0
4.623184,2.9994516,1.2170528,66.0
4.7309213,2.2318566,1.9546589,70.0
4.592098,2.29488,2.2219193,110.0
4.0385695,2.5172343,1.3169938,1.0
5.3407693,2.3493912,1.7980831,1.0
4.628525,3.0341072,1.2223675,46.0
4.6696987,2.2387264,1.9347423,120.0
4.463552,2.2652307,2.1655405,39.0
3.9172528,2.4752953,1.2814698,1.0
5.2648497,2.3558404,1.7771007,1.0
4.583443,3.045762,1.2152812,63.0
4.6102557,2.245741,1.9155371,73.0
4.3047123,2.2179983,2.093859,165.0
3.9807737,2.5510643,1.3082495,78.0
4.4007163,2.5249763,1.3660641,1.0
5.189062,2.3614297,1.7561182,1.0
4.577124,3.083265,1.2188244,60.0
4.535863,2.244576,1.8899301,87.0
4.2534666,2.225325,2.0753343,112.0
3.9357095,2.5570333,1.2984121,77.0
4.332995,2.5227165,1.349563,1.0
5.122087,2.3701358,1.7381332,1.0
4.5544477,3.1097515,1.2179387,45.0
4.473336,2.2484896,1.8693023,92.0
4.182944,2.2217083,2.047145,113.0
3.8891263,2.5614722,1.2880281,87.0
5.590886,2.4692073,1.5465406,107.0
4.510824,3.1215696,1.2112952,60.0
4.8231063,2.9878702,1.2211952,4.0
5.2709374,2.8235748,1.2446103,1.0
4.4142637,2.2534208,1.850097,92.0
4.1238894,2.223425,2.0245934,124.0
3.8506205,2.5708039,1.2803768,69.0
4.2346425,2.5376003,1.3282713,1.0
5.508044,2.4743626,1.5275056,142.0
4.5054555,3.1599824,1.2152812,40.0
4.784351,3.0057213,1.2160096,1.0
5.2496624,2.8547568,1.2437737,1.0
4.365478,2.2543132,1.833737,79.0
4.2240033,2.303784,2.0801668,254.0
3.8241508,2.579176,1.2754581,70.0
4.211066,2.5505838,1.3245453,1.0
4.4905143,3.1811788,1.2152812,53.0
4.783353,3.0365589,1.2194667,1.0
5.254967,2.8898942,1.2483749,1.0
4.296717,2.252825,1.8102639,76.0
3.980951,2.202523,1.964993,254.0
3.7983696,2.5965962,1.2721789,56.0
4.165314,2.5589504,1.3149639,1.0
4.473598,3.211617,1.2161671,41.0
4.765825,3.0676043,1.2198988,1.0
4.252844,2.2638423,1.7974604,72.0
3.939966,2.2121344,1.951301,84.0
3.7488728,2.5972548,1.2607019,82.0
4.1458726,2.583046,1.3138994,1.0
5.360924,2.520903,1.4979513,5.0
5.575699,2.3487813,1.8020118,1.0
4.4423203,3.2315898,1.2130668,22.0
4.7513742,3.1006722,1.2211952,1.0
4.2188473,2.2797716,1.7889247,58.0
3.9561327,2.2542007,1.9666038,229.0
3.7199233,2.6118577,1.2563298,47.0
4.0789037,2.5773335,1.2973983,1.0
3.5071075,2.5922437,1.4419404,1.0
5.367727,2.565313,1.5044633,1.0
4.166955,2.3833456,1.5197142,1.0
5.481794,2.349572,1.7758635,1.0
4.440716,3.273394,1.2183815,23.0
4.726901,3.1272497,1.2198988,1.0
4.170104,2.2872102,1.7739873,44.0
3.8391433,2.2189953,1.914252,115.0
3.6956265,2.6295671,1.2535971,61.0
4.061002,2.6018777,1.2968659,68.0
3.5375886,2.6496472,1.4618328,1.0
4.405537,2.9664176,1.726983,1.0
4.5882635,2.5279045,1.3690742,1.0
4.158464,2.4133282,1.5221795,1.0
5.3986115,2.353902,1.7532016,1.0
4.40292,3.2883298,1.2135097,41.0
4.697405,3.1503968,1.217306,10.0
4.101883,2.283133,1.7505143,23.0
3.776303,2.214142,1.8892843,100.0
5.645844,2.3275762,2.1640503,96.0
3.6572552,2.6368847,1.2459458,64.0
4.017015,2.6096048,1.287817,43.0
3.5223744,2.672974,1.4624745,30.0
4.5687404,2.3926244,1.5852611,1.0
5.326074,2.3619726,1.7340261,1.0
4.3992314,3.3289378,1.2183815,41.0
4.683993,3.1842172,1.2190346,20.0
4.045579,2.2765703,1.7305977,1.0
3.735988,2.21404,1.8739815,126.0
5.5117135,2.3022442,2.1159282,92.0
3.6323876,2.6449738,1.2415736,68.0
3.9852786,2.6158934,1.2814295,65.0
3.464792,2.6547704,1.4432238,11.0
4.501658,2.3848734,1.5654776,1.0
5.3131413,2.3862545,1.733445,1.0
4.3819504,3.3484418,1.2179387,34.0
4.673777,3.2095535,1.220331,10.0
3.6797602,2.2118058,1.8522353,71.0
5.3743687,2.2841456,2.0678058,108.0
3.6110685,2.6642966,1.2399341,33.0
3.9558876,2.6323926,1.2771711,69.0
3.191603,2.4755082,1.3328532,1.0
4.459641,2.3987575,1.5558857,1.0
4.360825,3.3759081,1.2179387,16.0
4.6519117,3.2377462,1.2198988,19.0
5.0643005,3.071343,1.2324797,4.0
3.459745,2.3331327,1.5908436,1.0
4.435284,2.2741625,1.8151953,1.0
3.6143587,2.2031915,1.8256568,103.0
5.271963,2.2794716,2.0332391,52.0
5.0627713,2.3039932,2.2894003,146.0
3.571222,2.6695495,1.2317362,50.0
3.924844,2.647555,1.2723805,55.0
3.1463149,2.4719563,1.3200194,1.0
3.4987338,2.482391,1.388118,1.0
4.3741784,2.5452974,1.3214475,1.0
4.3532996,3.414124,1.2219247,1.0
4.6330767,3.268031,1.220331,9.0
5.014981,3.0845551,1.2249503,1.0
3.4481041,2.3569129,1.5922965,1.0
4.3892446,2.285662,1.8019664,1.0
3.5709472,2.2074254,1.8103539,54.0
5.169832,2.2736025,1.9986725,129.0
4.899406,2.2662528,2.220735,53.0
3.5436797,2.6837556,1.2279105,31.0
3.8889785,2.6591878,1.265993,55.0
3.118912,2.4821792,1.3148859,1.0
3.4598708,2.487813,1.3786702,1.0
4.343163,2.563832,1.3167884,1.0
4.357647,3.4621289,1.2294538,1.0
4.6092663,3.294817,1.2194667,18.0
5.0137153,3.127453,1.2295516,1.0
3.436301,2.3806386,1.5937494,5.0
4.3166604,2.2827601,1.7775974,1.0
3.5183482,2.2053225,1.7902186,40.0
5.0731306,2.2688649,1.9661391,80.0
4.841732,2.2764142,2.2006755,56.0
3.4263625,2.6282134,1.19184,1.0
3.8515334,2.6693835,1.2590731,29.0
3.1267529,2.5208688,1.3251529,35.0
3.4395528,2.5061712,1.3767806,1.0
4.2806735,2.5630937,1.3022933,1.0
5.525001,2.5127344,1.4759318,130.0
5.647265,2.3558984,1.7583076,26.0
4.319144,3.4759283,1.224582,1.0
4.5805454,3.3180132,1.217306,8.0
4.9758244,3.14733,1.2249503,1.0
3.4580004,2.4277024,1.6111845,1.0
4.298921,2.3080773,1.776205,1.0
3.5028822,2.2263956,1.7894132,29.0
4.985246,2.2669296,1.9369947,96.0
4.7575364,2.2731106,2.1682718,127.0
3.3446987,2.5986216,1.1683395,1.0
3.0757859,2.5115309,1.3097523,16.0
4.2397785,2.5747962,1.294528,1.0
5.451062,2.5203242,1.4599929,106.0
5.556278,2.3593342,1.7341213,1.0
4.318319,3.5203276,1.2307824,1.0
4.5674996,3.352477,1.2194667,8.0
4.9444523,3.171101,1.2220223,1.0
3.4068668,2.416137,1.5922965,1.0
4.1608405,2.2599506,1.7225931,1.0
3.461642,2.2229419,1.7733049,1.0
4.913083,2.2618382,1.9125946,103.0
4.753404,2.2987437,2.1713579,152.0
3.353527,2.6310809,1.1759908,1.0
3.4377508,2.563004,1.3874882,1.0
4.194752,2.5744014,1.2841744,1.0
4.366239,3.59417,1.2498267,1.0
4.5500774,3.3728063,1.2190346,8.0
4.9458303,3.2050586,1.2262052,1.0
3.5206857,2.5293036,1.6540456,146.0
4.108706,2.265392,1.7065791,1.0
4.8375306,2.263719,1.8881946,88.0
3.3474321,2.6605291,1.1798165,1.0
3.0392983,2.537869,1.3059022,16.0
3.362296,2.5402126,1.3629236,1.0
4.163771,2.5914586,1.2795153,1.0
4.61618,2.557604,1.3306438,1.0
4.3450637,3.6227872,1.2502695,11.0
4.5397553,3.4094982,1.2220595,7.0
4.9060245,3.2231164,1.2211857,1.0
3.2972858,2.6605127,1.6465024,1.0
3.5107706,2.555733,1.6569514,86.0
4.7621503,2.264741,1.8637946,97.0
4.4489703,2.219601,2.042514,105.0
3.351549,2.6984994,1.1874678,1.0
3.7297392,2.717632,1.2393783,1.0
3.2403657,2.4810357,1.3188335,1.0
4.127854,2.605115,1.2733032,1.0
4.408892,2.480056,1.2740397,1.0
5.3125043,2.568192,1.4339112,1.0
4.296961,3.6285334,1.2427405,24.0
4.5369425,3.4520776,1.2272451,1.0
4.898669,3.2625961,1.224532,1.0
3.2805045,2.6811774,1.6465024,1.0
3.503672,2.5843358,1.6613102,106.0
4.6886415,2.2657313,1.8400723,87.0
5.463841,2.301222,2.0362835,1.0
4.3708797,2.2147183,2.012425,161.0
3.3434386,2.7268422,1.190747,1.0
3.7172582,2.7444274,1.2409753,1.0
3.0071673,2.5758605,1.3059022,16.0
3.1163044,2.418118,1.2734835,1.0
4.0951753,2.620519,1.2681262,1.0
4.5044613,2.5706134,1.3071005,133.0
5.3188705,2.6127222,1.4401902,1.0
5.502653,2.4911551,1.7352462,1.0
4.2770324,3.6580062,1.2436262,1.0
4.535324,3.4959424,1.2328628,1.0
4.892627,3.30321,1.2282966,1.0
3.2407756,2.6826615,1.6346912,1.0
3.5008452,2.6162755,1.6678483,109.0
4.610254,2.263381,1.8143167,82.0
5.30329,2.2735312,1.9808614,1.0
4.3077626,2.2166033,1.9892794,114.0
3.4104533,2.8180351,1.2218988,1.0
3.7061365,2.7723212,1.2431045,1.0
3.2149267,2.5262198,1.3213528,132.0
4.05277,2.6292663,1.2598433,1.0
4.4546323,2.5795915,1.2970821,57.0
5.637059,2.594192,1.7836188,1.0
4.527159,3.535137,1.2367522,1.0
4.8766065,3.3372161,1.2295516,1.0
3.5081906,2.656107,1.6794717,90.0
4.55729,2.2728336,1.7987279,64.0
5.2698345,2.2985718,1.9736038,1.0
4.243165,2.2169223,1.9653623,66.0
3.4000282,2.8456154,1.2246314,50.0
3.665521,2.7781875,1.23512,1.0
2.9603956,2.6008697,1.2994853,7.0
3.178116,2.529923,1.3125348,70.0
4.021684,2.6450632,1.2551843,1.0
4.388137,2.5783036,1.2820544,49.0
5.6380596,2.6376352,1.7892436,1.0
4.5540032,3.6021059,1.2505804,1.0
4.8603516,3.3711512,1.2308065,1.0
3.5134614,2.6861084,1.6881893,88.0
4.506294,2.2737782,1.7824612,48.0
5.189757,2.2931051,1.9472125,42.0
4.1691904,2.2029989,1.935273,158.0
3.3880448,2.8628545,1.2251779,32.0
3.6216667,2.772131,1.2244742,1.0
3.1617024,2.541326,1.3106452,50.0
4.0107794,2.6650615,1.2557019,1.0
4.3842816,2.6038637,1.284559,65.0
4.457807,2.3998654,1.5021772,1.0
5.5995083,2.6519375,1.7808064,1.0
4.543099,3.628379,1.252309,1.0
4.8460093,3.3951452,1.2312248,1.0
3.5098207,2.7183392,1.6947273,129.0
3.5153162,2.2176929,1.7544624,1.0
4.453483,2.2821538,1.7668723,28.0
4.1455326,2.2238753,1.9306439,204.0
3.3801816,2.8928888,1.2290035,35.0
3.4681196,2.690295,1.1771001,1.0
2.9526594,2.652359,1.3091106,1.0
3.1560187,2.569479,1.3150543,116.0
4.3345847,2.6115086,1.2745407,69.0
4.4141545,2.412111,1.492299,1.0
5.6191096,2.7044284,1.7926184,1.0
4.497375,3.6385093,1.245827,1.0
4.8452616,3.440317,1.2366626,1.0
2.8118927,2.4384282,1.4420226,1.0
3.4764876,2.7277596,1.6867363,77.0
3.4780316,2.225004,1.7425905,1.0
4.375763,2.276825,1.7411166,3.0
4.9644465,2.2693846,1.8719969,1.0
4.063578,2.2125206,1.8982401,76.0
3.3590424,2.9115365,1.2279105,8.0
3.5485127,2.7878182,1.2111669,1.0
2.9164107,2.6529126,1.300127,1.0
3.1236365,2.5760539,1.3081259,80.0
4.2915907,2.6226442,1.2665259,86.0
4.8240995,2.5492887,1.3233055,1.0
5.5190783,2.5641658,1.41379,46.0
4.367186,2.4220338,1.4812586,1.0
4.848888,3.4890556,1.2433554,1.0
5.359637,3.463891,1.2731211,1.0
2.8034658,2.4622185,1.4457135,1.0
3.3450835,2.6596363,1.6300725,104.0
3.4485242,2.236894,1.734676,37.0
4.869479,2.2634332,1.840987,1.0
3.999654,2.210121,1.874323,106.0
3.3478827,2.9389634,1.2306432,4.0
3.5808837,2.8494508,1.2287325,1.0
2.9052308,2.6763468,1.3026937,1.0
3.107389,2.5956292,1.3081259,86.0
4.2601786,2.640437,1.2620176,76.0
4.635602,2.486233,1.274523,1.0
5.4235635,2.5616682,1.3929538,37.0
5.3180594,3.484675,1.2683045,1.0
2.764444,2.458655,1.4331642,1.0
3.310825,2.6666586,1.6213549,90.0
3.403609,2.2384853,1.718847,58.0
4.7867565,2.2619803,1.8145955,1.0
3.937528,2.2079163,1.8511775,83.0
3.3350785,2.96508,1.2328292,1.0
3.4047449,2.7455602,1.1728418,1.0
2.8911145,2.6971467,1.3039771,1.0
3.086653,2.611446,1.3062363,86.0
4.2254257,2.6558914,1.2565075,78.0
4.7457585,2.5844724,1.3102646,145.0
3.414057,3.1754723,1.0243957,85.0
5.322228,3.5352826,1.2747267,1.0
3.2693639,2.6675007,1.6090051,91.0
4.7383485,2.2757952,1.8013998,1.0
3.893185,2.215137,1.8365186,70.0
3.3291974,2.9976203,1.237748,1.0
3.3679433,2.7511344,1.1659219,1.0
2.9152184,2.754496,1.3232279,1.0
3.089003,2.6467507,1.3144244,82.0
3.8513038,2.7368152,1.2313709,1.0
4.7006106,2.5981696,1.3020537,70.0
3.3700018,3.1740222,1.0168666,33.0
4.843169,3.6257463,1.259669,1.0
5.2917666,3.5632074,1.2727197,1.0
3.1764889,2.8927305,1.6701245,1.0
4.6731324,2.2718954,1.7802867,1.0
3.839631,2.208421,1.8156877,49.0
3.2966037,2.9963691,1.2306432,1.0
3.398239,2.8023453,1.1813585,1.0
3.0606363,2.6476963,1.307496,73.0
3.8274121,2.7470014,1.2277471,1.0
4.12905,2.6594806,1.2359698,1.0
3.3353302,2.5071006,1.316328,1.0
4.654504,2.6012263,1.2923938,73.0
5.215968,2.57545,1.3498921,1.0
3.3507845,3.1858175,1.015538,19.0
3.136484,2.892366,1.6583134,1.0
2.9151878,2.4350476,1.4448252,56.0
3.3385494,2.2794816,1.7053924,1.0
4.638413,2.2912583,1.7723693,1.0
3.8034277,2.21938,1.8048863,28.0
3.3087223,3.0458293,1.2426667,1.0
3.4236383,2.8592832,1.1967949,1.0
3.0511103,2.673093,1.3106452,75.0
3.8069618,2.7687094,1.2267118,1.0
4.078121,2.6632807,1.2254504,1.0
3.3089554,2.5198865,1.3120139,1.0
4.606062,2.6121063,1.2832168,124.0
5.187488,2.602108,1.346651,1.0
2.7697906,2.3444889,1.3787174,90.0
3.328708,2.303526,1.7077668,1.0
4.5715103,2.2943118,1.7519159,1.0
3.7434871,2.2157624,1.7825123,3.0
3.2811117,3.058649,1.2393875,53.0
3.0356808,2.6934636,1.3112751,59.0
3.7801893,2.785658,1.2236056,1.0
4.0872097,2.7058458,1.2334651,1.0
3.273548,2.5254228,1.3040017,1.0
4.5694175,2.629302,1.277421,86.0
5.122409,2.6100888,1.3336861,1.0
2.8502436,2.4425712,1.4273902,67.0
3.392639,2.378844,1.7489221,1.0
4.4845285,2.2864068,1.7235451,1.0
3.2451131,3.0632806,1.2328292,74.0
3.412424,2.923288,1.2058439,1.0
3.0399718,2.7314086,1.320723,57.0
3.7579832,2.805867,1.2220526,1.0
3.9879045,2.676786,1.2079182,1.0
3.2158015,2.5129292,1.2867446,1.0
4.5093274,2.6323514,1.2648631,121.0
5.028006,2.602258,1.3128499,1.0
4.411158,2.3986852,1.4365736,1.0
2.8419096,2.4665003,1.4310225,51.0
3.4610674,2.6080933,1.6132323,1.0
3.4422297,2.4455454,1.7829546,154.0
4.456633,2.3076477,1.7182668,1.0
3.2507253,3.1076524,1.2426667,38.0
3.385218,2.9371305,1.2026502,1.0
3.0424948,2.7682424,1.3295411,38.0
3.7418149,2.8305955,1.2225703,1.0
4.044858,2.7515802,1.2309605,86.0
3.1880615,2.5235782,1.2818141,1.0
4.472706,2.6486866,1.2590672,69.0
4.9770455,2.6158192,1.3035893,60.0
5.692825,3.5382586,2.0001583,1.0
4.348846,2.400576,1.4208244,1.0
3.3762574,3.2771652,1.8325273,1.0
3.469779,2.6491895,1.6253245,1.0
3.4704442,2.3833141,1.5276409,1.0
3.4163258,2.4596634,1.7774143,110.0
3.2104924,3.10785,1.2344688,59.0
3.403046,2.9899912,1.2159574,1.0
2.9955926,2.7604377,1.316314,15.0
3.7071457,2.8410506,1.2168758,1.0
4.0067077,2.7627382,1.2244486,76.0
3.1854484,2.5543385,1.2873609,1.0
3.482339,2.5268831,1.3166857,1.0
4.414481,2.6515896,1.2469923,74.0
4.943313,2.6379414,1.298959,68.0
5.69472,3.5893373,2.0088744,1.0
4.409198,2.469757,1.4461356,71.0
3.333014,3.2655995,1.8170252,1.0
3.4970815,2.6965127,1.6445297,1.0
3.4406266,2.3869073,1.5192858,1.0
3.4136415,2.4821732,1.782163,101.0
3.2136192,3.1405058,1.2415736,73.0
3.4772449,3.083635,1.2484273,1.0
2.9797585,2.7719514,1.3150543,1.0
3.6937165,2.8584886,1.2168758,1.0
3.9840834,2.7749887,1.221443,71.0
3.1748488,2.5705256,1.2879772,1.0
3.462671,2.5376623,1.3136882,1.0
4.9119563,2.6511102,1.2938657,48.0
5.682575,3.619232,2.0106177,1.0
3.292723,3.2667532,1.8059523,1.0
3.4976833,2.7323215,1.6530654,1.0
3.4748082,2.4427469,1.541566,1.0
3.405398,2.5089843,1.7861203,141.0
3.195185,3.161995,1.2421201,37.0
3.4174826,3.06953,1.2335231,1.0
2.937296,2.7673144,1.3037168,12.0
3.5832608,2.8085313,1.1852971,1.0
3.966569,2.7999663,1.221443,79.0
3.1615655,2.5928507,1.28921,1.0
3.4420464,2.5559778,1.3118896,1.0
4.3306546,2.666173,1.2310535,8.0
4.833651,2.6484895,1.2771968,58.0
5.688604,3.6736393,2.0210772,1.0
4.2950444,2.4687097,1.4168872,1.0
3.3877313,3.1772153,0.99345964,4.0
3.25255,3.2675302,1.7948794,1.0
3.4760652,2.750744,1.6509315,34.0
3.4655204,2.4688535,1.5443511,1.0
3.3984292,2.5368814,1.790869,82.0
4.2384124,2.323737,1.6536078,1.0
3.184724,3.191584,1.2459458,59.0
3.4052882,3.0973964,1.2361846,1.0
2.9336507,2.7987492,1.3100154,51.0
3.4524767,2.74039,1.146471,1.0
3.9536366,2.8281934,1.2229458,73.0
3.1466694,2.613887,1.2898263,1.0
3.3937864,2.5536168,1.2993002,46.0
4.271121,2.6664355,1.2184956,1.0
4.80158,2.6703537,1.2730294,70.0
5.679791,3.7187867,2.0263066,1.0
3.2345495,3.2905645,1.7963557,1.0
3.4325573,2.751366,1.638128,90.0
3.4575667,2.4960299,1.5478324,1.0
3.2633336,2.4690099,1.7267616,124.0
4.192309,2.3330107,1.6410719,68.0
3.1672962,3.214284,1.2470388,72.0
3.3843358,3.1174312,1.2356523,1.0
2.9173796,2.8184385,1.3106452,10.0
3.3931918,2.7279398,1.131976,1.0
3.926354,2.8462,1.2199403,69.0
3.1258345,2.62991,1.2879772,1.0
3.3548307,2.5576477,1.2903078,38.0
4.272275,2.7047107,1.2238085,1.0
5.6945043,3.7799146,2.0402524,1.0
3.331738,3.537601,1.0691276,1.0
3.2150993,3.3121622,1.797094,1.0
3.435442,2.7894676,1.6480863,70.0
3.554185,2.599084,1.5993555,129.0
3.2243433,2.4717028,1.7140983,89.0
4.1479053,2.342719,1.6291958,63.0
3.8030014,2.2447717,1.7647669,1.0
3.1630635,3.2507393,1.2535971,36.0
3.3760061,3.1491044,1.2399106,1.0
3.9021323,2.8662548,1.2179366,73.0
3.1135747,2.6532218,1.2898263,1.0
3.3311162,2.572881,1.2873102,16.0
4.2389064,2.7209508,1.2189786,86.0
4.6610527,2.669956,1.2438587,3.0
3.34779,3.6000428,1.0819714,1.0
3.1865432,3.3242126,1.7926648,1.0
3.528715,2.6147087,1.5951779,63.0
3.179624,2.469527,1.6982694,139.0
4.1051884,2.352894,1.6179794,21.0
3.7346523,2.236525,1.7390882,1.0
3.1226752,3.249651,1.2453992,54.0
3.3617823,3.1755247,1.2420398,1.0
3.884046,2.890716,1.2179366,75.0
3.0954084,2.6714823,1.28921,1.0
3.2998009,2.5820749,1.2813152,1.0
4.220104,2.7464657,1.2184956,62.0
4.6340694,2.6933615,1.2410805,1.0
3.2243497,3.3960404,1.823669,1.0
3.5133417,2.6290755,1.5937854,85.0
3.1694024,2.4856093,1.6990608,112.0
4.134997,2.3957014,1.634474,1.0
3.6907074,2.234117,1.7232277,1.0
3.1192083,3.276925,1.250318,35.0
3.3551872,3.199277,1.2452335,1.0
3.843985,2.8893209,1.2094209,73.0
3.0685022,2.673469,1.2830467,1.0
3.302625,2.6093524,1.2873102,1.0
4.2054977,2.765249,1.2180126,71.0
4.634776,2.723003,1.2447847,1.0
4.0621367,2.4998791,1.3628899,1.0
3.2130718,3.4271245,1.8295745,1.0
2.8751583,2.4141192,1.3927276,1.0
3.4967535,2.6510985,1.5937854,62.0
3.1566103,2.5077446,1.7006437,69.0
3.6607697,2.2476473,1.7156752,63.0
3.1300297,3.3302443,1.2634345,46.0
3.3391974,3.2242942,1.2468305,1.0
3.4471185,2.9085739,1.1739082,1.0
3.816483,2.906417,1.2064154,55.0
3.087153,2.7243457,1.2984548,1.0
3.275697,2.6217566,1.2831137,1.0
4.181598,2.7872863,1.2160807,80.0
4.600825,2.7421722,1.2401545,1.0
3.6247087,2.5222542,1.305774,1.0
3.214099,3.471895,1.842862,1.0
2.8032384,2.3833907,1.3642755,1.0
3.5173316,2.7013962,1.6111919,80.0
2.6603622,2.3672283,1.5300705,1.0
3.147975,2.5332499,1.7046009,162.0
3.6134648,2.250204,1.6998148,16.0
3.0960188,3.3356857,1.2579694,71.0
3.3161042,3.2425275,1.2457658,1.0
3.4068315,2.91125,1.166143,1.0
3.8166025,2.944454,1.2124264,26.0
3.0346649,2.7118168,1.2830467,1.0
3.2532077,2.6375086,1.2807157,1.0
4.160795,2.8113186,1.2151146,76.0
4.588511,2.7740266,1.2415435,1.0
3.5807302,2.524997,1.2953147,1.0
3.1897247,3.4892664,1.8413856,1.0
2.8558729,2.4598782,1.3984181,82.0
3.527019,2.7440445,1.6237245,80.0
2.6156716,2.3567655,1.5123515,1.0
3.1663043,2.5806584,1.7235957,109.0
3.086641,3.3678894,1.2628881,40.0
3.301169,3.2687008,1.247895,1.0
3.3768325,2.9224317,1.1620015,1.0
3.5087426,2.7442434,1.1177524,32.0
3.033014,2.7449515,1.2898263,1.0
3.2469344,2.6663232,1.2849122,1.0
4.1414523,2.836303,1.2146317,83.0
4.5576906,2.7947161,1.2378393,1.0
3.541517,2.5306473,1.2865986,1.0
3.1974874,3.542482,1.8591022,1.0
2.834753,2.472828,1.3955729,73.0
3.5141416,2.7696128,1.6258132,75.0
2.5873606,2.3607364,1.5042974,1.0
3.1571383,2.6063132,1.727553,86.0
3.0744112,3.397242,1.2667137,67.0
3.2874026,3.2961733,1.2505565,1.0
3.348275,2.9346313,1.1583778,1.0
3.4746764,2.753085,1.1122422,8.0
3.014311,2.7626617,1.28921,9.0
3.2139163,2.6733284,1.2783178,1.0
4.109241,2.85225,1.2102847,77.0
4.5201674,2.8110435,1.232283,1.0
3.5116436,2.5426826,1.2813689,1.0
3.833485,2.4951112,1.3055177,1.0
2.9720795,3.3326764,1.7373003,1.0
3.2560272,3.3013985,1.7717321,1.0
3.4951997,2.790475,1.625117,42.0
2.5657902,2.3706958,1.5002704,1.0
3.1491895,2.6331255,1.7323017,95.0
3.0785162,3.4452965,1.2776442,38.0
3.2720625,3.3222342,1.2526857,1.0
3.331209,2.9569001,1.1588954,40.0
3.3603125,2.6977408,1.0801834,3.0
3.003834,2.788053,1.2922915,17.0
3.195591,2.692247,1.2777183,1.0
4.0912385,2.878013,1.2102847,66.0
4.4941673,2.834231,1.2299678,1.0
3.4971359,2.565836,1.28195,1.0
3.8193386,2.520198,1.3060802,1.0
2.9208384,3.3060837,1.7158926,1.0
3.252206,3.3286498,1.7782702,1.0
3.0822687,2.751685,1.5364113,1.0
3.4483159,2.780004,1.6091031,15.0
3.1818461,2.6856272,1.7576281,35.0
3.4237924,2.3979542,1.4700053,1.0
3.0546339,3.4510882,1.2743651,66.0
3.2807124,3.3623486,1.262267,1.0
3.325835,2.98034,1.1620015,11.0
3.3566217,2.7208188,1.0831889,1.0
2.971315,2.7838678,1.283663,8.0
3.169734,2.6962135,1.2723228,1.0
4.074476,2.8949993,1.2093188,49.0
4.4478655,2.8345912,1.2207073,1.0
3.462022,2.5650892,1.2732338,1.0
3.7962084,2.530766,1.3021429,63.0
2.9012234,3.3257768,1.7166308,1.0
3.2507226,3.3690479,1.789167,1.0
2.999321,2.4525702,1.4030107,1.0
3.162105,2.7031927,1.7560452,54.0
3.0404477,3.4789376,1.2776442,39.0
3.2474287,3.3704531,1.2574763,1.0
3.324139,3.016835,1.1682137,31.0
3.3454692,2.7467418,1.0851926,1.0
2.9757442,2.8235455,1.2935241,9.0
3.1469243,2.7111232,1.2699248,1.0
4.037361,2.9068573,1.2035228,21.0
4.4234147,2.8582833,1.2188551,1.0
3.453462,2.5925717,1.2761393,1.0
3.7690673,2.5470955,1.2982056,81.0
3.238529,3.3988104,1.7942523,1.0
4.1083336,3.7711754,2.0862503,1.0
2.9649992,2.4559186,1.3939594,1.0
2.7322993,2.3691545,1.5217758,37.0
3.386556,2.2836764,1.6295758,1.0
3.023531,3.503821,1.2798302,59.0
3.2301922,3.3949633,1.2590731,1.0
3.2994525,3.0324066,1.166143,6.0
3.6868334,3.0631554,1.2054136,1.0
2.9511175,2.8355615,1.2904426,8.0
3.1327152,2.733337,1.2711238,1.0
4.023707,2.9356182,1.2049718,1.0
4.4249477,2.8987386,1.2244115,1.0
3.659282,2.5071528,1.2650198,32.0
3.2568765,3.4609897,1.8167726,1.0
4.0900154,3.8020246,2.0890956,1.0
2.9177704,2.448156,1.3786417,42.0
2.6202755,2.301982,1.4663744,18.0
3.4840508,2.54016,1.5174497,1.0
3.3798108,2.3100965,1.633352,1.0
3.018834,3.5433273,1.2874815,37.0
3.2114499,3.4179904,1.2601378,1.0
3.3253946,3.0953996,1.1827087,1.0
3.6883292,3.1036255,1.2124264,52.0
2.952242,2.8727183,1.2990711,8.0
3.1355832,2.7705562,1.2795168,1.0
3.9880672,2.9480808,1.1996589,1.0
4.3757734,2.9061513,1.215614,1.0
3.3783205,2.6028576,1.2598691,1.0
3.716204,2.5801194,1.2908934,62.0
3.2465348,3.493621,1.8233107,1.0
2.8922846,2.4579952,1.373768,33.0
2.6498983,2.357212,1.4917008,106.0
3.4951687,2.582254,1.5296497,1.0
3.398835,2.354321,1.6499678,45.0
3.0002072,3.5666583,1.2891212,25.0
3.1925454,3.4409163,1.2612023,1.0
3.3114793,3.121558,1.1847795,1.0
3.405503,2.904289,1.1232625,61.0
2.9233449,2.880474,1.2941405,7.0
3.1166854,2.7889373,1.2789173,1.0
3.9524305,2.960212,1.1943458,1.0
4.371991,2.9433105,1.2197813,1.0
3.6369357,2.559522,1.2683946,72.0
3.2346456,3.524891,1.8291224,1.0
2.8910592,2.488274,1.3807305,4.0
2.6240618,2.3640432,1.4853692,111.0
3.4953868,2.6166446,1.5371053,93.0
3.542975,2.3884785,1.4576515,1.0
3.4037473,2.3893654,1.6597861,62.0
3.0119739,3.627029,1.3044238,44.0
3.2101173,3.503382,1.2771711,1.0
3.3071063,3.1570444,1.190474,1.0
3.3739483,2.914298,1.1187543,75.0
2.921271,2.9149919,1.3015363,1.0
3.131762,2.8377755,1.2927058,1.0
3.9614952,3.006219,1.2030398,1.0
4.3292413,2.954365,1.2128358,1.0
3.6223497,2.58343,1.268957,32.0
3.2406657,3.564818,1.8421986,1.0
3.4667227,3.3321958,1.7939038,1.0
3.50994,2.653638,1.5493053,97.0
3.5003688,2.3840415,1.4444559,1.0
3.47431,2.462821,1.7005701,145.0
2.99728,3.6441643,1.3055168,34.0
3.1857615,3.5099385,1.2739774,17.0
3.376682,3.254742,1.2220526,1.0
3.3484566,2.9200377,1.1147469,83.0
2.89283,2.9138,1.2947568,1.0
3.0872457,2.824319,1.2795168,1.0
3.938071,3.0177329,1.2001418,48.0
4.321696,2.9791255,1.214688,1.0
3.6023233,2.594898,1.2661448,54.0
3.228208,3.5961604,1.8480103,1.0
3.3696826,3.279274,1.7533594,1.0
3.4822028,2.4038575,1.4431362,1.0
3.4663131,2.4899683,1.7043463,84.0
3.0274007,3.7288685,1.3295639,10.0
3.1688166,3.5356061,1.2761066,8.0
3.3685546,3.2880921,1.2267118,1.0
3.3417006,2.9512198,1.1187543,59.0
3.0624092,2.8372114,1.2765193,1.0
3.9419549,3.060363,1.2073867,24.0
4.2932963,2.9995718,1.2119098,1.0
3.3145776,2.6805172,1.2592881,1.0
3.5595062,2.5983653,1.2565826,31.0
2.9633803,3.3454728,1.7063507,1.0
3.3211725,3.2727077,1.738422,1.0
2.7273138,2.5422475,1.5700544,1.0
3.5222354,2.7335072,1.5703164,23.0
3.4266734,2.3977418,1.4259819,1.0
3.1793718,2.5639436,1.6714135,1.0
3.4460926,2.5084503,1.7020806,105.0
3.147823,3.5568848,1.2766389,1.0
3.366981,3.3282883,1.2339593,1.0
3.3317862,2.9798632,1.1217598,71.0
3.0557048,2.8667865,1.2813152,1.0
4.2648115,3.019779,1.2091316,1.0
3.2829237,2.6890926,1.2534773,1.0
3.5601413,2.6331549,1.2627698,47.0
2.9127064,3.330498,1.6889156,1.0
3.2979093,3.2908583,1.7369994,1.0
2.7663298,2.6107268,1.6025038,1.0
3.5241518,2.7707899,1.5791276,19.0
3.433176,2.4344096,1.4352188,1.0
3.1802778,2.5979624,1.6806718,1.0
3.4422283,2.5387902,1.7081226,111.0
3.1649303,3.6214263,1.2931399,1.0
3.3527997,3.3562405,1.2365477,1.0
3.3360534,3.021431,1.1297745,71.0
3.0598664,2.906849,1.2909073,1.0
3.5067773,2.7911882,1.0808421,1.0
4.2600203,3.056669,1.2132989,1.0
3.2556944,2.7010636,1.2494098,1.0
3.5034568,2.6257305,1.2481456,11.0
2.8672361,3.3206387,1.6743865,1.0
3.2693129,3.3035085,1.7327316,9.0
4.1588726,3.7882032,2.0533154,1.0
3.46561,2.759868,1.5601498,15.0
3.427044,2.4624987,1.4391775,1.0
3.1653075,2.6190765,1.6814433,42.0
3.451517,2.5790937,1.720962,87.0
3.1332543,3.631061,1.2894139,1.0
3.3505569,3.3965755,1.2437953,1.0
3.0277278,2.9128554,1.2849122,1.0
3.8880875,3.137794,1.2088357,1.0
4.190232,3.0469565,1.1984819,1.0
3.2269855,2.711561,1.2447611,1.0
3.4807541,2.6430771,1.2458957,1.0
2.8511775,3.344238,1.6772923,1.0
3.2601976,3.336068,1.7391334,16.0
3.4574533,2.5171018,1.4589711,1.0
3.1628723,2.650835,1.6891584,144.0
3.3952365,2.5707366,1.7005701,54.0
3.12043,3.6623733,1.2936722,1.0
3.337202,3.4258976,1.2469013,1.0
3.3191922,3.082783,1.1372883,1.0
3.0217242,2.943745,1.2903078,1.0
3.8742862,3.1670992,1.2107677,1.0
4.2228446,3.1111073,1.2137619,1.0
3.2098846,2.731783,1.2447611,1.0
2.8349352,3.3677664,1.6801982,1.0
3.2508016,3.3686426,1.7455351,1.0
2.8405833,2.7825906,1.6769001,1.0
2.9951735,2.4440186,1.3568163,10.0
3.522378,2.5977948,1.4939398,145.0
3.1741705,2.6946762,1.7045889,69.0
3.2521882,2.4956877,1.6356179,64.0
3.1684523,3.7656982,1.3240129,1.0
3.3102775,3.4412065,1.2448306,1.0
3.3351662,3.1365826,1.1498114,1.0
3.0250046,2.9840076,1.2998997,1.0
3.8409019,3.180185,1.2064208,68.0
3.1984313,2.756923,1.2470855,1.0
3.3454726,2.6080341,1.2082101,1.0
2.8058348,3.3654058,1.6722071,1.0
3.2696073,3.4205568,1.7647403,1.0
3.314418,3.2725985,1.9705282,1.0
2.8332443,2.3328798,1.2863272,91.0
3.5511212,2.6446247,1.5117539,58.0
3.2653723,2.5301456,1.6484573,49.0
3.3086185,3.4722137,1.2505251,1.0
3.3288093,3.1602256,1.1528169,41.0
3.004117,2.9915302,1.2969022,1.0
3.8154852,3.1894937,1.2030398,71.0
3.1710281,2.7593324,1.2412747,1.0
3.3543382,2.6402886,1.2160847,1.0
3.2582686,3.4519513,1.7704308,1.0
2.962366,2.4719512,1.3541051,151.0
3.5057,2.6454096,1.499218,49.0
2.7294796,2.3657227,1.4739046,138.0
3.237712,2.5415223,1.6424152,47.0
3.2906904,3.4971712,1.2520782,1.0
3.3102891,3.1824143,1.1533178,15.0
3.0068617,3.0319202,1.3064942,1.0
3.8086545,3.2247453,1.2073867,71.0
4.1451983,3.1659806,1.2068164,1.0
3.1664948,2.7906518,1.2465044,1.0
3.3979356,2.7088873,1.2385836,1.0
3.284723,3.5245223,1.7974604,1.0
3.3002565,3.3413138,1.9871488,1.0
2.9625137,2.5039592,1.3615607,85.0
3.5281448,2.6970177,1.5163724,67.0
2.7187011,2.3865008,1.4762192,170.0
3.244962,2.580142,1.6544993,40.0
3.2647254,3.5135157,1.2505251,1.0
3.3055549,3.21794,1.1588279,47.0
2.9649467,3.027687,1.2963027,1.0
3.6899536,3.163563,1.175026,52.0
4.1715274,3.2275028,1.2207073,1.0
3.1446335,2.8066487,1.2447611,1.0
3.3913398,2.7385752,1.2425209,14.0
3.2410936,3.5216181,1.7853682,1.0
3.365995,3.300783,1.7149342,1.0
2.9396074,2.516368,1.3581718,120.0
2.7105134,2.4097042,1.4800768,147.0
3.2084153,2.5843158,1.6439257,17.0
3.2633853,3.5568225,1.258808,1.0
3.3309715,3.2833023,1.1753583,65.0
2.979189,3.0803869,1.3112901,1.0
3.299134,2.8619251,1.0523454,44.0
4.1112313,3.2225966,1.2086686,1.0
3.1283503,2.8276417,1.2453423,1.0
3.391961,2.774328,1.2492706,29.0
2.997331,3.7812328,1.8451045,1.0
3.2364206,3.5613542,1.7953265,1.0
3.3532057,3.329759,1.7191118,1.0
3.2311306,3.3548567,1.9705282,1.0
3.3806767,2.653088,1.4662287,1.0
2.6830401,2.4155066,1.4731332,154.0
3.2439785,2.6463146,1.671115,96.0
3.25001,3.5873163,1.2624317,1.0
3.2896311,3.283738,1.1678445,66.0
2.9385858,3.0770679,1.3016982,1.0
3.3551416,2.9482718,1.0769782,82.0
4.0970154,3.2531805,1.2105207,1.0
3.113333,2.8498397,1.2465044,1.0
3.3507245,2.7761047,1.240271,25.0
2.976977,3.8043787,1.8472838,1.0
3.230133,3.599773,1.8045734,1.0
3.321596,3.340172,1.7135417,1.0
3.0969172,2.4640527,1.3474673,1.0
3.2029207,2.6467094,1.6582756,101.0
2.5592926,3.822081,1.5227933,1.0
3.246636,3.6293437,1.270197,1.0
3.2949214,3.3303823,1.177362,63.0
2.9336667,3.110671,1.3082927,1.0
3.3293314,2.9628103,1.0745631,116.0
4.0932236,3.2922072,1.215614,1.0
3.1079402,2.8811147,1.251734,1.0
3.3405955,2.8032372,1.2430834,53.0
2.9762306,3.8403864,1.8581808,1.0
3.2168417,3.6191616,1.8067074,1.0
3.3269632,3.377067,1.7246819,1.0
3.0039842,2.414,1.3111792,89.0
3.0466452,2.808199,1.6961021,43.0
3.1704237,2.6452618,1.647702,43.0
2.5443716,3.8388498,1.5247184,1.0
3.28872,3.3555107,1.1808684,75.0
2.921594,3.127237,1.3094916,1.0
3.3253973,2.9875917,1.0779442,83.0
4.0731187,3.3077974,1.2142249,1.0
3.0859828,2.8878424,1.2482476,1.0
3.3361695,2.826351,1.2464582,35.0
3.2198074,3.6689134,1.8216448,1.0
3.3280025,3.4206543,1.7365183,1.0
3.0637546,2.493219,1.3448282,65.0
3.027598,2.8260202,1.6953306,50.0
2.8469443,2.4084454,1.4845663,30.0
3.304092,3.413516,1.1943933,34.0
2.9148917,3.1594946,1.3154867,1.0
4.050748,3.332094,1.2137619,1.0
3.0719254,2.9111443,1.2499908,1.0
3.2817857,2.8161814,1.2323964,15.0
3.3012254,3.4361112,1.7337332,1.0
3.0158415,2.4861655,1.330313,83.0
2.9830878,2.8195055,1.6799003,27.0
2.7625256,2.3676202,1.4475586,42.0
3.4008396,3.5568762,1.2384744,8.0
4.047727,3.3723555,1.2193183,1.0
3.0563223,2.9330516,1.251153,1.0
3.3134809,2.8793197,1.2515204,38.0
3.3016064,3.4798143,1.7455696,1.0
2.853685,2.6273146,1.3615607,1.0
3.0074387,2.5110781,1.3336118,76.0
2.7676392,2.647107,1.5649439,31.0
2.7630534,2.3981981,1.4558665,90.0
3.470545,3.6749372,1.2730379,13.0
3.200672,2.985876,1.0547605,1.0
4.0503273,3.4177058,1.2267267,1.0
3.0446632,2.9588985,1.2540584,1.0
3.2779646,2.8849466,1.2447708,29.0
2.769967,3.7673137,1.7869878,1.0
2.835603,3.3535192,1.6352828,1.0
3.2912662,3.5127547,1.7518358,1.0
2.8316426,2.6400313,1.3588496,1.0
2.9843621,2.5238664,1.330313,112.0
2.7311735,2.6450827,1.5533711,1.0
2.731158,2.4009323,1.4468033,85.0
3.43545,3.683974,1.2685295,31.0
3.302643,3.1211107,1.096298,40.0
4.01987,3.4355369,1.2239485,1.0
3.028727,2.9806678,1.2552205,1.0
3.256896,2.9029448,1.2436458,39.0
2.7517467,3.7921605,1.79062,1.0
2.8180504,3.375591,1.6374167,1.0
3.2985492,3.5648937,1.7678498,1.0
2.8027465,2.6460805,1.3527496,1.0
2.9770873,2.5498922,1.3342717,80.0
2.7131898,2.6608918,1.5525997,11.0
2.7076786,2.4107032,1.4422718,40.0
3.3766668,3.667173,1.2550048,9.0
3.2341022,3.0946152,1.0793931,90.0
4.0129647,3.4734032,1.2285788,1.0
3.0153353,3.0050683,1.2575448,1.0
3.2328694,2.9182336,1.241396,13.0
2.7867138,3.3700345,1.6281698,1.0
3.2804408,3.5790212,1.7671535,1.0
2.9578655,2.5577555,1.3309727,90.0
2.7084465,2.681479,1.5572287,44.0
2.6277802,3.848509,1.5109409,1.0
3.3423095,3.6645164,1.2484927,19.0
3.3098192,3.197877,1.1107877,64.0
3.980382,3.4782543,1.2234855,1.0
3.0132246,3.0315177,1.2627745,1.0
3.2475743,2.9591575,1.2526454,36.0
3.2717922,3.614795,1.7748123,1.0
2.7962213,3.234725,1.8059065,1.0
2.9431632,2.577526,1.3316325,59.0
2.7006176,2.707637,1.5626293,19.0
3.0912058,2.8095162,1.6673387,1.0
2.6035476,3.8649437,1.5109409,1.0
3.2840738,3.6467416,1.2349678,4.0
3.5929556,3.1822357,1.1077285,1.0
2.9901156,3.046274,1.2610313,1.0
3.211919,2.963964,1.2458957,12.0
3.4319243,3.5200987,0.9260105,1.0
3.2615674,3.6492078,1.781775,1.0
2.7614532,3.235534,1.7964091,1.0
3.3925102,3.3221889,1.6746944,1.0
3.0830731,2.8376157,1.6726255,1.0
3.2281938,3.1980538,1.096298,45.0
3.3897016,3.04183,1.049387,1.0
2.9788687,3.073284,1.2645177,1.0
3.2073164,2.9971254,1.2515204,33.0
2.7458305,3.2584162,1.799575,1.0
2.796835,2.7685962,1.3818941,1.0
2.9204195,2.623087,1.336251,1.0
3.0706265,2.8619554,1.6756465,1.0
3.2966962,3.3080168,1.1276926,66.0
3.3661854,3.0591617,1.0479978,1.0
2.9581833,3.0905511,1.2639366,1.0
3.161819,2.9922764,1.2408334,1.0
3.2341583,3.246726,1.6150498,1.0
2.9207194,2.6565425,1.3441684,1.0
3.1232257,3.2569656,1.8504059,1.0
3.300242,3.3536708,1.1363865,111.0
3.3742106,3.1051638,1.0567954,1.0
2.951786,3.123047,1.2697474,1.0
3.1694012,3.0371919,1.2515204,18.0
3.334544,3.3909311,1.6774055,1.0
3.1052253,3.279216,1.851949,1.0
3.285838,3.3813288,1.1388015,67.0
3.3431997,3.1157417,1.0530912,9.0
2.932105,3.141532,1.2697474,1.0
3.1295023,3.0370927,1.2430834,11.0
3.3041482,3.3917193,1.6699499,1.0
3.050792,3.2519176,1.8280319,35.0
3.3498254,3.1513648,1.0600367,16.0
2.9301937,3.1694274,1.2755581,1.0
3.1344373,3.0705204,1.250958,44.0
3.0128303,3.2519917,1.8172306,19.0
3.356279,3.5316586,1.177924,68.0
3.3384466,3.180365,1.0628148,1.0
2.9127889,3.1906145,1.2767203,1.0
3.1260335,3.1009166,1.2554578,48.0
2.981185,3.2585533,1.810287,10.0
3.2946994,3.256901,1.8531321,1.0
3.3102233,3.5271037,1.1692301,47.0
3.331054,3.21338,1.066982,10.0
2.897783,3.2145627,1.2790446,1.0
3.1119297,3.1259122,1.2577076,39.0
3.2857656,3.5029972,1.6943499,1.0
2.9458845,3.2607217,1.8010287,17.0
3.3300204,3.5935614,1.184686,14.0
3.33456,3.2572553,1.0748535,17.0
2.8851223,3.241319,1.282531,1.0
3.081413,3.1345038,1.2532078,14.0
2.109037,3.7557805,1.6745538,1.0
3.2942379,3.5568337,1.7106166,1.0
2.9424462,3.298523,1.81183,8.0
3.344591,3.3081117,1.0850401,9.0
2.8810358,3.278146,1.290085,1.0
3.0777764,3.1702538,1.2599576,35.0
2.0862894,3.7705884,1.6752919,1.0
3.0396397,3.8024838,1.7720274,1.0
3.2680326,3.57328,1.7085832,1.0
3.0830257,3.501848,1.9144421,12.0
3.3430684,3.348254,1.0915225,19.0
2.870362,3.307793,1.2947336,1.0
3.065804,3.1978052,1.2633324,29.0
2.0799968,3.8016307,1.6848885,42.0
3.0404058,3.8402073,1.7831675,1.0
3.2662473,3.605438,1.7167166,1.0
3.1305,3.244715,1.8025299,1.0
3.319008,3.3557062,1.0887444,5.0
2.8820376,3.353338,1.3075173,1.0
3.07195,3.2343862,1.2723318,44.0
2.054321,3.811344,1.6834121,15.0
3.280989,3.6681185,1.7370499,1.0
2.8047566,3.2548354,1.7601383,1.0
3.1113348,3.2656553,1.8032851,1.0
3.0423317,3.2438667,1.2683946,15.0
2.0579784,3.8768425,1.7070342,32.0
2.2323177,3.7421556,1.6627631,1.0
2.7580917,3.2413518,1.7431648,1.0
3.160883,3.359008,1.8448243,1.0
3.4244626,3.5491576,1.1392144,1.0
3.0467906,3.2895591,1.2790816,35.0
2.0250435,3.8731844,1.6996523,25.0
2.275404,3.868236,1.7136153,1.0
2.7270498,3.2458515,1.7362212,1.0
3.1574478,3.3977168,1.8553979,1.0
2.7683036,3.8399048,1.4521724,1.0
3.0234582,3.305817,1.2779566,32.0
2.0065699,3.8974276,1.7048197,39.0
2.2482285,3.877633,1.7114359,1.0
2.7311976,3.2928643,1.752423,1.0
3.0051968,3.2761548,1.776851,1.0
3.3220117,3.531214,1.1193042,1.0
3.0258987,3.350282,1.288081,41.0
2.237798,3.9158876,1.7223328,1.0
2.7357812,2.9117446,1.360663,1.0
2.9520655,3.2594337,1.7572144,1.0
3.3143914,3.5676358,1.1243975,1.0
2.9983692,3.3620949,1.2852688,33.0
2.1694121,3.839015,1.683104,56.0
2.0226302,3.22236,1.6371903,1.0
2.9428885,3.2801726,1.7609907,1.0
3.272396,3.5561178,1.1156,1.0
2.9850466,3.3790522,1.2863936,36.0
2.1553025,3.8704321,1.691095,64.0
2.0329084,3.2849803,1.6629635,1.0
2.9246893,3.3013594,1.7625012,1.0
3.2697055,3.5981252,1.1225454,1.0
2.9903874,3.4279947,1.2982056,33.0
2.1508255,3.9197474,1.7070771,35.0
2.0273533,3.3227718,1.6758502,1.0
2.8860087,3.654167,1.9105844,1.0
3.1441283,3.5917656,1.9105318,1.0
2.9687898,3.446716,1.2982056,39.0
1.969018,3.2724998,1.6436336,1.0
3.3114185,3.6877956,1.6964939,1.0
3.117848,3.6072621,1.908266,1.0
2.9533246,3.4725838,1.301018,31.0
1.909545,3.2184696,1.6098064,154.0
3.3007658,3.7226045,1.7030917,1.0
2.8046317,3.7010086,1.3749219,1.0
2.9525404,3.5159643,1.31058,43.0
1.9579548,3.3492973,1.6702123,101.0
3.284808,3.7517629,1.7070504,1.0
2.840577,3.7985067,1.4051378,1.0
2.9353168,3.5403345,1.3128299,30.0
1.9357932,3.34736,1.6645744,117.0
3.273306,3.774307,1.7103494,1.0
2.8101907,3.7948792,1.398746,1.0
2.9492152,3.5910738,1.3268917,43.0
1.9255003,3.3785992,1.6742393,85.0
2.1209822,3.3243535,1.662654,1.0
3.2729702,3.8219516,1.7228854,1.0
3.1799638,3.8577414,2.0026731,1.0
2.918087,3.5991347,1.3229543,30.0
2.3176956,3.9226089,1.6978776,1.0
1.9006819,3.3842275,1.6710176,137.0
2.1010392,3.3391638,1.6634455,1.0
3.2256193,3.8151414,1.7103494,1.0
3.1262932,3.8418553,1.9837918,1.0
2.9195335,3.6472607,1.3342038,38.0
2.2780674,3.9111829,1.6864967,1.0
1.8899167,3.4153795,1.6806825,86.0
2.0692766,3.3351862,1.6547396,1.0
2.9738598,3.7031367,1.9007134,1.0
2.9145072,3.6880426,1.3426409,21.0
2.169425,3.7775195,1.621768,1.0
1.8562696,3.4046206,1.6694069,139.0
2.066646,3.3777962,1.6697772,1.0
3.17863,3.8568256,1.7110091,1.0
2.9169898,3.6798072,1.8788109,1.0
2.9268887,3.7515268,1.3595151,21.0
1.8502805,3.4453278,1.6839043,88.0
2.0405982,3.3828754,1.6658199,1.0
3.1363711,3.8548267,1.7011124,1.0
2.8674173,3.664632,1.8614401,1.0
2.9162126,3.7865143,1.3657023,22.0
1.8272235,3.4410381,1.6774609,109.0
2.0122921,3.3720136,1.655531,1.0
3.114599,3.8651679,1.699133,1.0
2.8307242,3.6533027,1.8486006,1.0
1.8114462,3.4638371,1.6830988,113.0
1.9168454,3.2599065,1.5930064,18.0
2.798662,3.6592882,1.8425585,1.0
1.793795,3.4833097,1.6871259,84.0
1.9781264,3.4112911,1.662654,135.0
2.768881,3.6679616,1.838027,1.0
2.357021,3.9130642,1.6606262,1.0
1.7685958,3.4879634,1.6839043,134.0
1.9658496,3.439552,1.6705686,75.0
2.749119,3.6897268,1.8402928,1.0
1.7604002,3.5269237,1.6975962,81.0
1.94329,3.4502404,1.6697772,100.0
1.7350103,3.531326,1.6943746,130.0
1.9314682,3.4799974,1.6784831,99.0
1.7286329,3.5609252,1.704845,78.0
1.9203997,3.4986942,1.6832318,101.0
1.7046638,3.5684044,1.7032341,133.0
1.897497,3.5090802,1.6824403,98.0
1.6914515,3.5989738,1.7128991,77.0
1.8806419,3.5306332,1.687189,97.0
1.6634872,3.5978713,1.7072612,130.0
1.8627291,3.5504906,1.6911463,95.0
2.453015,3.801645,1.5940387,1.0
2.103992,3.3970249,1.6343806,1.0
1.6490902,3.6266258,1.7161207,76.0
1.8429382,3.5670068,1.6935207,93.0
2.4411175,3.8360865,1.602172,1.0
1.6203611,3.6235156,1.7096775,129.0
1.8221719,3.5817816,1.6951035,97.0
2.4149806,3.8481522,1.6008165,1.0
2.0564198,3.4152675,1.6305231,1.0
1.6178845,3.6646802,1.7257856,71.0
1.8086066,3.5968757,1.6982694,91.0
2.4106174,3.8819306,1.6103054,33.0
1.5833024,3.647845,1.7128991,139.0
1.7818558,3.5999584,1.6943121,91.0
2.3734982,3.8760822,1.6014943,16.0
2.065056,3.517466,1.669099,1.0
1.5759645,3.6948462,1.7306181,71.0
1.7713931,3.6357899,1.7061838,97.0
2.0621548,3.5640066,1.6853008,1.0
1.5464264,3.6894479,1.7233695,88.0
1.7501187,3.6501524,1.7077668,89.0
2.521654,3.7923536,1.5559596,1.0
1.9101455,3.3470364,1.5749737,1.0
1.5287219,3.7126617,1.7298127,155.0
1.7287338,3.664391,1.7093496,100.0
2.5102868,3.827012,1.563877,1.0
1.9930143,3.5460858,1.6644698,140.0
1.5195975,3.7579057,1.7467264,73.0
1.7056757,3.6751807,1.7093496,83.0
2.4892895,3.8474507,1.5658563,1.0
1.9768955,3.5698688,1.6698705,119.0
1.5032115,3.7684324,1.7483371,120.0
1.6960753,3.6998358,1.7172642,85.0
2.471131,3.8591385,1.5658563,1.0
1.972346,3.6018643,1.6806718,89.0
2.1621826,3.524184,1.6499678,1.0
1.4808223,3.7812188,1.749948,96.0
1.6773748,3.7204432,1.7220129,94.0
1.9444679,3.6044161,1.6760427,106.0
1.4596282,3.7972965,1.7531697,115.0
1.6569766,3.7376106,1.7251786,100.0
1.9312178,3.6345332,1.6845293,104.0
1.446578,3.8355658,1.7668617,86.0
1.640882,3.7647488,1.7330931,87.0
1.9100384,3.6498737,1.6860723,103.0
1.6223166,3.7867775,1.7386333,95.0
1.8904165,3.66838,1.6891584,103.0
2.0926,3.6109598,1.6658282,1.0
1.6035389,3.808721,1.7441734,97.0
1.8731179,3.6917326,1.6945591,101.0
2.0782073,3.638469,1.6726255,1.0
1.5891383,3.8246987,1.7481307,85.0
1.8532432,3.695558,1.6922445,98.0
2.0077522,3.5549605,1.6288205,1.0
1.5629685,3.8295166,1.7457564,32.0
1.8429248,3.7336667,1.7045889,99.0
2.0526133,3.686919,1.6847097,92.0
1.8162365,3.7385178,1.7015028,88.0
2.0177274,3.6786911,1.6748912,77.0
1.8013759,3.7682104,1.7099895,112.0
2.0167801,3.731921,1.6937727,85.0
1.7799958,3.7844748,1.712304,98.0
1.987146,3.7331052,1.688486,71.0
1.7646158,3.8140464,1.7207907,96.0
1.9705932,3.7586052,1.694528,78.0
1.7466229,3.8223195,1.7207907,95.0
1.9554396,3.77277,1.6967938,80.0
1.7278095,3.8450253,1.7261914,89.0
1.9367945,3.7948544,1.7013253,82.0
1.9196277,3.820155,1.7073674,78.0
1.8955871,3.8321407,1.7073674,76.0
1.8845688,3.8705544,1.7194515,63.0
