x,y,z,intensity
-0.898129,-11.205879,-0.11204775,82.0
-0.9150358,-10.690155,2.1638086,120.0
0.16297926,-10.113279,1.0955892,201.0
-0.16445976,-9.909203,1.0148573,116.0
-1.448469,-11.984391,-0.17798537,71.0
-1.5797155,-10.680892,2.0745966,174.0
-1.7067978,-10.840451,-0.22522314,89.0
-2.1253953,-10.44845,1.9502395,74.0
-0.59261066,-10.191983,1.0094831,110.0
-1.0344477,-11.020312,1.0304179,150.0
-0.43268278,-9.899597,1.307767,81.0
-0.8472757,-10.651976,1.367158,95.0
-1.4261309,-10.77385,0.95561963,200.0
-1.7971163,-10.643204,0.86510044,93.0
-1.2848611,-10.894317,1.3453157,140.0
-1.6519896,-10.726726,1.2527797,149.0
0.18171573,-10.0916395,0.39977518,210.0
-0.17567722,-9.953417,0.33654836,99.0
0.32536313,-10.172154,0.7526611,205.0
-0.031298943,-9.979754,0.68446165,108.0
-0.5673724,-10.201405,0.30158654,94.0
-1.0099707,-11.060029,0.26859984,183.0
-0.40746722,-9.928143,0.6253173,176.0
-0.82149386,-10.681045,0.6184656,108.0
-1.4117546,-10.819207,0.2087102,140.0
-1.8064932,-10.883153,0.13779742,87.0
-1.2627598,-10.93131,0.58023536,196.0
-1.625149,-10.726112,0.5082345,187.0
0.22279519,-10.301318,-0.29076764,90.0
0.6510673,-10.24301,1.7545195,89.0
-0.14491905,-10.10341,-0.34762618,70.0
0.11694775,-10.024707,1.660548,125.0
0.3566743,-10.382717,0.05275128,116.0
-0.0023983847,-10.200233,-0.008036737,104.0
0.33771276,-10.112419,2.2047365,131.0
-0.5756484,-10.9060135,-0.40823317,1.0
-0.46552712,-9.927531,1.574504,182.0
-0.98417175,-11.167543,-0.4878973,123.0
-1.0997913,-10.94421,1.6458629,153.0
-0.3950212,-10.189301,-0.046328254,41.0
-0.26048008,-9.819194,2.0665627,115.0
-0.82830656,-11.219278,-0.11202939,110.0
-0.8364357,-10.555085,2.1349084,94.0
0.22758517,-10.155719,1.1009197,205.0
-0.10273593,-9.953741,1.0199447,91.0
-1.35095,-11.796504,-0.177327,126.0
-1.5163733,-10.717823,2.0799637,172.0
-1.6392566,-10.854915,-0.225255,82.0
-2.0620053,-10.473168,1.952435,132.0
-0.5224268,-10.072435,0.99562454,118.0
-0.9538523,-10.899808,1.0169739,63.0
-0.36662745,-9.793343,1.2918717,188.0
-0.7689057,-10.505025,1.3456609,115.0
-1.3601243,-10.796422,0.9570221,195.0
-1.7311767,-10.66018,0.8656559,116.0
-1.2187624,-10.923846,1.3482658,139.0
-1.588959,-10.766323,1.2565955,92.0
0.24590725,-10.120246,0.40137145,212.0
-0.11340286,-9.974299,0.33750066,127.0
0.39055276,-10.201762,0.75545204,200.0
0.031470016,-10.037559,0.6892273,91.0
-0.4974084,-10.081021,0.29625678,115.0
-0.929048,-10.934739,0.2637712,88.0
-0.34266782,-9.856764,0.6196475,220.0
-1.3488404,-10.869533,0.2100438,81.0
-1.7348908,-10.874551,0.13729778,123.0
-1.1970325,-10.966809,0.58205944,202.0
-1.5603366,-10.753889,0.509305,182.0
0.28811294,-10.319704,-0.29106438,85.0
0.71753126,-10.268195,1.7596697,89.0
-0.0818378,-10.144111,-0.34845632,80.0
0.18034023,-10.049408,1.6648812,132.0
0.42352068,-10.41823,0.05344841,107.0
0.97537583,-10.378117,2.3326924,163.0
0.06175606,-10.216045,-0.0078331195,82.0
0.40197906,-10.129612,2.2090578,128.0
-0.5003399,-10.757612,-0.40447167,25.0
-0.3990352,-9.823727,1.5572494,171.0
-0.9163173,-11.201395,-0.48877102,74.0
-1.0311946,-10.952872,1.6461649,164.0
-0.32416838,-9.967694,-0.04833869,28.0
-0.19895718,-9.830415,2.068654,120.0
-0.75088143,-11.124501,-0.112258874,53.0
-0.75825316,-10.401872,2.1023955,115.0
0.29212156,-10.1779,1.1038272,210.0
-0.040289752,-9.970083,1.0217947,119.0
-1.2562734,-11.61185,-0.17668194,83.0
-1.4495199,-10.73103,2.0807304,176.0
-1.5637745,-10.81553,-0.22485691,96.0
-1.998017,-10.495572,1.9542648,84.0
-0.4544606,-9.968297,0.9835542,107.0
-0.8703677,-10.725213,0.99785817,112.0
-0.30681232,-9.854798,1.3005419,122.0
-0.69309604,-10.367395,1.3255597,91.0
-1.2964492,-10.840328,0.9606283,189.0
-1.6694428,-10.704287,0.86880344,86.0
-1.1537695,-10.966774,1.3530933,151.0
-1.5249338,-10.801623,1.2599026,135.0
0.31079072,-10.158423,0.40349984,214.0
-0.050972622,-10.008776,0.33911958,100.0
0.45612726,-10.23095,0.758243,205.0
0.09458102,-10.043142,0.6897203,114.0
-0.43110943,-10.012074,0.29316208,120.0
-0.84557027,-10.757076,0.25704035,121.0
-0.2814667,-9.88663,0.6217928,217.0
-0.6678418,-10.397895,0.59775126,99.0
-1.282819,-10.89765,0.21067886,131.0
-1.6833727,-10.993905,0.14004578,94.0
-1.1297061,-10.989999,0.58310175,197.0
-1.4946833,-10.77732,0.5101376,183.0
0.35468277,-10.365653,-0.29177663,87.0
0.78571945,-10.310628,1.76791,95.0
-0.023720982,-11.628095,-0.37925503,95.0
0.24444173,-10.09145,1.6722143,129.0
0.48985058,-10.433339,0.053778626,92.0
1.047709,-10.441631,2.3486366,124.0
0.12629516,-10.249452,-0.0074004303,79.0
0.46733245,-10.165904,2.2177005,127.0
-0.4234737,-10.518795,-0.39848298,35.0
-0.33558485,-9.772761,1.5486221,200.0
-0.84330004,-11.173049,-0.4877101,62.0
-0.9524668,-10.848861,1.6292566,80.0
-0.26134005,-9.961537,-0.04841049,1.0
-0.13760571,-9.866672,2.0761833,122.0
-0.6470065,-10.59007,-0.113498084,78.0
-0.68484306,-10.289146,2.0783122,101.0
0.35694566,-10.199671,1.1067348,208.0
0.022362944,-10.011857,1.0266509,98.0
-1.1641704,-11.42847,-0.17604353,103.0
-1.385523,-10.767189,2.0860977,166.0
-1.510492,-10.930114,-0.22570084,72.0
-1.9323915,-10.509851,1.9546306,139.0
-0.3873059,-9.849804,0.96991915,106.0
-0.7912457,-10.577771,0.9816833,70.0
-0.2456083,-9.888187,1.305166,117.0
-0.6191702,-10.23121,1.3057379,98.0
-1.2309546,-10.871992,0.9630324,199.0
-1.6015568,-10.710627,0.8684331,124.0
-1.0873283,-10.999452,1.3565798,149.0
-1.4613336,-10.842439,1.2639728,94.0
0.37585315,-10.1882,0.40520254,212.0
0.011901515,-10.02488,0.33988145,135.0
0.5222943,-10.263695,0.7613828,206.0
0.1581723,-10.078224,0.6926782,106.0
-0.36347705,-9.878793,0.28731653,91.0
-0.7665802,-10.608702,0.25140694,86.0
-0.21970312,-9.906147,0.623172,219.0
-0.5924801,-10.234603,0.5859145,159.0
-1.2195431,-10.953186,0.212203,79.0
-1.6110313,-10.982511,0.13949618,72.0
-1.063639,-11.02867,0.58518636,197.0
-1.4306557,-10.8142,0.5118028,202.0
0.42116243,-10.395187,-0.29225147,92.0
0.852644,-10.331011,1.7723736,47.0
0.049405314,-11.654008,-0.37979463,82.0
0.30834845,-10.107456,1.6752143,126.0
0.5570484,-10.460005,0.054328993,139.0
1.1164546,-10.463926,2.35528,125.0
0.19125646,-10.282448,-0.006967741,98.0
0.5326675,-10.192021,2.2241824,128.0
-0.35359743,-10.403345,-0.3955629,24.0
-0.2748921,-9.802307,1.5530956,201.0
-0.77152455,-11.156193,-0.48702362,78.0
-0.86966807,-10.679279,1.6023847,138.0
-0.20092928,-10.084958,-0.047315523,46.0
-0.075707875,-9.884943,2.0799482,113.0
-0.5852111,-10.677792,-0.11330532,80.0
-0.61154103,-10.154405,2.0498133,97.0
0.40674376,-10.23953,1.1118231,203.0
0.06965945,-10.03548,1.0294259,99.0
-1.0930324,-11.252651,-0.17543836,97.0
-1.3376209,-10.79698,2.0906982,170.0
-1.4621855,-10.960893,-0.22589192,142.0
-1.8891461,-10.553668,1.9612174,81.0
-0.34082103,-9.849534,0.9696956,177.0
-0.72967935,-10.41871,0.9644582,88.0
-0.19950923,-9.916936,1.3092121,125.0
-0.5626107,-10.0896845,1.2853575,111.0
-1.1818169,-10.89746,0.9650359,208.0
-1.556556,-10.755491,0.871951,66.0
-1.0373031,-11.024189,1.3592616,155.0
-1.4110019,-10.855105,1.2647359,89.0
0.4254258,-10.222231,0.40711805,207.0
0.059312467,-10.068663,0.34197655,101.0
0.5724879,-10.292945,0.76417375,206.0
0.20628591,-10.111246,0.6954718,102.0
-0.31692046,-9.880397,0.28731653,168.0
-0.7043947,-10.436737,0.24496876,147.0
-0.17351088,-9.938974,0.62562376,220.0
-0.5380919,-10.12573,0.5780234,71.0
-1.1677059,-10.956823,0.21213949,131.0
-1.554708,-10.958316,0.13869676,137.0
-1.0139775,-11.059401,0.5868801,208.0
-1.3822412,-10.840622,0.51299226,183.0
0.4710865,-10.413063,-0.29254824,92.0
0.104524516,-11.68164,-0.38037574,75.0
0.3568915,-10.133484,1.6798807,130.0
0.6095635,-10.511158,0.05531965,106.0
1.1716868,-10.510873,2.3672378,123.0
0.24026363,-10.307425,-0.0066368612,81.0
0.5828346,-10.228394,2.2328253,129.0
-0.29179373,-9.937214,-0.38398144,26.0
-0.22924228,-9.829154,1.5572494,202.0
-0.7114116,-11.04601,-0.48346645,54.0
-0.80910856,-10.553173,1.5824571,86.0
-0.15403616,-10.133787,-0.046884716,60.0
-0.029162016,-9.926261,2.0887322,116.0
-0.5461011,-10.896138,-0.112809636,66.0
-0.55648434,-10.031984,2.0241244,124.0
0.47230974,-10.262551,1.114973,202.0
0.1330461,-10.064641,1.0328946,92.0
-1.013091,-11.155706,-0.17509256,139.0
-1.2731372,-10.83442,2.096449,166.0
-1.3968668,-10.997633,-0.22611484,63.0
-1.8234745,-10.569203,1.9619492,133.0
-0.27986693,-9.887242,0.97371906,186.0
-0.6554691,-10.290117,0.950384,103.0
-0.13761544,-9.953614,1.3144143,126.0
-0.49329945,-9.978308,1.2691648,105.0
-1.1164984,-10.93635,0.9682414,208.0
-1.4881173,-10.759143,0.8713955,165.0
-0.9558021,-10.888313,1.3399518,76.0
-1.3442519,-10.8755665,1.2662622,130.0
0.49123788,-10.251271,0.40882075,211.0
0.12275671,-10.08607,0.34283364,129.0
0.64007115,-10.334876,0.76818573,198.0
0.27045146,-10.135654,0.6976081,115.0
-0.25592446,-9.928137,0.2892937,138.0
-0.63011587,-10.303323,0.23992062,88.0
-0.11131424,-9.967785,0.6277691,217.0
-0.46735358,-9.983447,0.5677366,151.0
-1.1033401,-11.0097,0.21360011,79.0
-1.6898587,-12.453454,0.17616941,45.0
-0.9336744,-10.936279,0.57841134,104.0
-1.3170259,-10.87287,0.51441956,183.0
0.5388541,-10.45383,-0.29320112,85.0
0.96206075,-10.277861,1.7648199,91.0
0.1780817,-11.692748,-0.38062477,83.0
0.42141086,-10.152717,1.6835474,119.0
0.67744493,-10.535054,0.05583332,105.0
1.2404886,-10.526542,2.3725526,113.0
0.305795,-10.333698,-0.0062805293,94.0
0.6485232,-10.247919,2.238011,128.0
-0.23174714,-10.052791,-0.38680255,1.0
-0.16780478,-9.852116,1.5607643,203.0
-0.63912326,-11.002371,-0.4819687,104.0
-0.73166746,-10.404238,1.5589063,129.0
-0.09036108,-10.134555,-0.046884716,72.0
0.033269987,-9.9379835,2.091242,128.0
-0.48410946,-11.041206,-0.11248377,68.0
-0.48682874,-9.906138,1.9976325,77.0
0.538504,-10.291099,1.1188496,209.0
0.19666305,-10.085455,1.0354383,113.0
-0.94528455,-11.189756,-0.17518567,78.0
-1.2056774,-10.84806,2.097599,168.0
-1.4425154,-11.943159,-0.2336306,122.0
-1.759637,-10.595964,1.9648767,78.0
-0.21821442,-9.912651,0.9764014,180.0
-0.582904,-10.161008,0.9363098,111.0
-0.0751489,-9.968135,1.3164372,121.0
-0.4258572,-9.876355,1.2543682,100.0
-1.0496216,-10.962962,0.9702449,210.0
-1.4289391,-10.831443,0.8773203,92.0
-0.8752638,-10.741976,1.319301,81.0
-1.2808198,-10.925164,1.2716043,111.0
0.5581041,-10.291851,0.41116196,212.0
0.18707876,-10.143026,0.34559533,99.0
0.70764554,-10.368413,0.7715,204.0
0.3358572,-10.18954,0.7022094,82.0
-0.19409706,-9.961514,0.2906691,135.0
-0.5570881,-10.161411,0.23457985,114.0
-0.048751052,-9.992217,0.629608,219.0
-0.40105432,-9.902471,0.56181824,77.0
-1.0352418,-11.028358,0.21398114,108.0
-1.5830231,-12.245756,0.17067342,127.0
-0.8532694,-10.790703,0.5685094,87.0
-1.2509971,-10.900762,0.515609,202.0
0.60739124,-10.498147,-0.29391336,89.0
1.044802,-10.449986,1.7960645,70.0
0.22402924,-10.299971,-0.35173544,79.0
0.48717833,-10.193208,1.6908805,119.0
0.7468082,-10.574467,0.05664052,101.0
1.3124632,-10.56498,2.383182,121.0
0.3723438,-10.379541,-0.005669674,81.0
0.7165876,-10.298195,2.2501106,132.0
-0.16872682,-10.064044,-0.38705003,41.0
-0.10622494,-9.890486,1.5668353,200.0
-0.56580544,-10.928319,-0.47953483,65.0
-0.6586031,-10.292235,1.5410923,71.0
-0.026708722,-10.176921,-0.046507757,73.0
0.09621354,-9.980602,2.1004446,128.0
-0.40071267,-10.688307,-0.11330073,73.0
-0.42009512,-9.809177,1.9771615,112.0
0.60531574,-10.323181,1.123211,208.0
0.26083001,-10.117783,1.0393695,104.0
-0.8764812,-11.215417,-0.17525215,161.0
-1.1413113,-10.892521,2.104883,173.0
-1.3446078,-11.755315,-0.2320542,101.0
-1.6952214,-10.6203985,1.9674382,127.0
-0.15622649,-9.935686,0.97886014,175.0
-0.51230365,-10.037356,0.9228658,101.0
-0.0124929,-9.9980955,1.3207724,124.0
-0.36094698,-9.805615,1.2440383,182.0
-0.9777687,-10.93564,0.966839,126.0
-1.3611071,-10.842182,0.8775054,115.0
-0.7951546,-10.575295,1.2959682,65.0
-1.215706,-10.964537,1.2756745,97.0
0.62462735,-10.31804,0.41275823,211.0
0.251259,-10.161623,0.34654766,133.0
0.7750584,-10.39356,0.7741165,206.0
0.40024394,-10.197187,0.70303106,119.0
-0.13177112,-9.986514,0.2917007,133.0
-0.48637313,-10.0289755,0.22960488,83.0
0.014162771,-10.030214,0.6325195,219.0
-0.33571893,-9.819065,0.55575895,192.0
-0.96490467,-11.022696,0.21360011,60.0
-1.4791125,-12.0392,0.1652274,90.0
-0.7723327,-10.61071,0.5563925,132.0
-1.1844509,-10.926267,0.5166795,205.0
0.67531925,-10.5240555,-0.29435852,91.0
1.1138341,-10.474558,1.801558,82.0
0.28947034,-10.326344,-0.35231653,81.0
0.5528556,-10.221456,1.6962137,119.0
0.81575,-10.601461,0.057227578,138.0
1.3834318,-10.591327,2.391154,122.0
0.43851665,-10.400976,-0.005364246,89.0
0.78329384,-10.320753,2.2561605,136.0
-0.105743356,-10.094895,-0.3877924,41.0
-0.04414584,-9.918598,1.5713087,200.0
-0.48408553,-10.656102,-0.4709227,90.0
-0.58367836,-10.12447,1.5148242,150.0
0.03739326,-10.204886,-0.046256453,77.0
0.1593427,-10.003265,2.1054642,124.0
-0.30846986,-9.933031,-0.11504021,82.0
-0.35641345,-9.758761,1.966324,157.0
0.6722867,-10.350867,1.1270877,205.0
0.3256497,-10.157644,1.0442257,103.0
-0.8082308,-11.2526245,-0.17535856,106.0
-1.0745474,-10.917061,2.1083333,176.0
-1.2506461,-11.580635,-0.23058927,100.0
-1.632678,-10.658042,1.9725612,63.0
-0.09404582,-9.970258,0.98266006,163.0
-0.44439548,-9.937065,0.91194254,133.0
0.05059258,-10.035577,1.3262634,122.0
-0.30107173,-9.861133,1.2515763,140.0
-0.8964746,-10.786862,0.95121205,110.0
-1.2977434,-10.89006,0.88120836,76.0
-0.71955794,-10.443635,1.277463,99.0
-1.1488888,-10.991685,1.2782184,148.0
0.691913,-10.349776,0.41467378,206.0
0.31596997,-10.189796,0.34797612,104.0
0.8431441,-10.42224,0.7770819,202.0
0.46621427,-10.238281,0.7066463,92.0
-0.0691387,-10.011123,0.29273227,132.0
-0.4197291,-9.949968,0.22660527,146.0
-0.5541808,-9.808015,2.506806,95.0
0.07743582,-10.05585,0.6345116,215.0
-0.27533263,-9.864852,0.5588591,136.0
-0.8799723,-10.831261,0.20731308,82.0
-1.3783303,-11.835801,0.1598813,115.0
-1.1192844,-10.967251,0.51870155,206.0
0.74460787,-10.563484,-0.2950114,90.0
1.1832162,-10.4986725,1.8070515,91.0
0.35557497,-10.362293,-0.3531052,83.0
0.6191369,-10.253216,1.7022135,122.0
0.8864184,-10.643946,0.058108162,68.0
1.457199,-10.634583,2.403112,118.0
0.5052522,-10.42798,-0.004982462,89.0
0.85218596,-10.366237,2.267396,36.0
-0.042404987,-10.137347,-0.3888318,35.0
0.018274672,-9.944345,1.5754626,201.0
-0.4100721,-10.487162,-0.46555576,80.0
-0.51404864,-10.015404,1.497614,78.0
0.101988874,-10.244446,-0.045897447,71.0
0.22290267,-10.031395,2.1117387,113.0
-0.25248632,-10.1746855,-0.11448945,103.0
-0.29585013,-9.7843075,1.9711406,123.0
0.7402094,-10.386039,1.1319337,184.0
0.39054757,-10.185177,1.0476944,90.0
-0.726324,-11.081837,-0.17477335,35.0
-0.9997596,-10.855173,2.0949154,112.0
-1.1572876,-11.389332,-0.22899695,106.0
-1.5651015,-10.664201,1.9718293,139.0
-0.031430263,-9.998477,0.9857894,162.0
-0.37736586,-9.826385,0.899969,108.0
0.11412213,-10.07068,1.3314656,111.0
-0.23988804,-9.892526,1.2557641,142.0
-0.81708914,-10.6375,0.9355851,81.0
-1.2292941,-10.897999,0.88120836,146.0
-0.64516765,-10.303534,1.2578849,77.0
-1.083753,-11.038164,1.2833061,107.0
0.76022065,-10.389038,0.417015,213.0
0.38118583,-10.221551,0.34959507,105.0
0.53182364,-10.261029,0.7087826,115.0
-0.0061937897,-10.041331,0.29402173,138.0
-0.35303655,-9.842562,0.2225814,141.0
-0.49224144,-9.805502,2.5053031,77.0
0.1411273,-10.087067,0.6369634,214.0
-0.2139118,-9.890321,0.56055003,118.0
-0.8001054,-10.675087,0.20216915,90.0
-1.2821633,-11.649502,0.15498488,88.0
-0.6196727,-10.288843,0.5347646,171.0
-1.052874,-10.999898,0.5202478,204.0
0.8144185,-10.602457,-0.29566428,89.0
1.2546021,-10.536019,1.8149486,100.0
0.42167944,-10.38583,-0.3536448,83.0
0.6852025,-10.274707,1.7065468,113.0
1.5301613,-10.667679,2.4128556,104.0
0.5725552,-10.45855,-0.004549773,79.0
0.02738232,-11.620947,-0.42555583,23.0
0.081077196,-9.975622,1.5805751,202.0
-0.33070293,-10.1019535,-0.45344886,44.0
-0.44441864,-9.876244,1.4758749,99.0
0.16679151,-10.267597,-0.045682043,71.0
0.28682238,-10.059119,2.1180131,113.0
-0.18695147,-10.098088,-0.11466845,57.0
-0.2353877,-9.825146,1.9791685,112.0
0.7925393,-10.425979,1.1372643,195.0
0.43976226,-10.2129965,1.0511632,114.0
-0.6690314,-10.999287,-0.1744874,79.0
-0.93689364,-10.722859,2.0680792,110.0
-1.0875046,-11.231456,-0.22769125,124.0
-1.5221107,-10.722058,1.9813435,80.0
0.01582268,-10.036276,0.9900364,176.0
-0.33226427,-9.861844,0.90354,119.0
0.16214958,-10.101689,1.3360897,125.0
-0.19378112,-9.917306,1.2591143,144.0
-0.75469667,-10.466547,0.9179547,122.0
-1.1833639,-10.953158,0.8858371,94.0
-0.5886405,-10.163982,1.238575,71.0
-1.0326657,-11.053023,1.2845781,107.0
0.8110775,-10.40923,0.418292,213.0
0.43062752,-10.251579,0.35111877,103.0
0.9634659,-10.473833,0.78248936,211.0
0.5832126,-10.314137,0.7133839,92.0
0.041320454,-10.073219,0.29539713,138.0
-0.3077125,-9.876077,0.22375198,140.0
-0.44584486,-9.803844,2.5043013,159.0
0.18927944,-10.116195,0.63926196,218.0
-0.16809721,-9.933106,0.5635092,125.0
-0.7382126,-10.50922,0.19677119,85.0
-1.2059706,-11.456614,0.14998852,117.0
-0.56659454,-10.205955,0.52916217,77.0
-1.0034254,-11.0305805,0.5217941,204.0
0.8680322,-10.6423435,-0.29631716,89.0
1.3081728,-10.561269,1.8204421,86.0
0.47191602,-10.413692,-0.3542674,80.0
0.736755,-10.316611,1.7142131,108.0
1.0066568,-10.667394,0.058731906,171.0
1.5847591,-10.6892805,2.419499,110.0
0.6241304,-10.4956665,-0.004040727,95.0
0.9701992,-10.400968,2.2773352,170.0
0.069766566,-10.217174,-0.3908115,32.0
0.12852575,-10.004741,1.585368,204.0
-0.28087467,-10.0294695,-0.45113984,97.0
-0.39302254,-9.76366,1.4583628,161.0
0.21599999,-10.302687,-0.045358937,67.0
0.33553073,-10.094792,2.1259606,111.0
-0.14056517,-10.174848,-0.11449404,69.0
-0.18966985,-9.85357,1.984788,116.0
0.50533307,-10.239798,1.0546318,101.0
-0.6033795,-11.069181,-0.17470685,105.0
-0.85850626,-10.5896015,2.0408597,109.0
-1.0097451,-11.1604,-0.22707024,71.0
-1.455248,-10.735307,1.9820753,123.0
0.07911751,-10.059826,0.9927187,161.0
-0.27088013,-9.883617,0.90564066,124.0
0.22629124,-10.128169,1.3401358,123.0
-0.13179882,-9.940109,1.2621853,144.0
-0.6800435,-10.332069,0.9039305,85.0
-1.1151357,-10.96632,0.88639253,126.0
-0.5185804,-10.042771,1.2216789,158.0
-0.9491383,-10.9012165,1.2642272,53.0
0.4957706,-10.264636,0.3518806,137.0
1.0320387,-10.495326,0.7849315,207.0
0.6483696,-10.316237,0.7138769,108.0
0.10490854,-10.096736,0.2964287,125.0
-0.24603024,-9.891801,0.22426412,141.0
-0.38088474,-9.725199,2.4832625,193.0
0.25348327,-10.138726,0.6411008,216.0
-0.105885215,-9.949925,0.5646365,130.0
-0.6627667,-10.362019,0.19194478,84.0
-1.1165353,-11.290894,0.1456417,101.0
-0.49577415,-10.067773,0.51991165,155.0
-0.92119706,-10.887489,0.5128733,112.0
1.3804439,-10.597767,1.8283391,79.0
0.5397176,-10.458452,-0.3552636,72.0
0.8048384,-10.355039,1.7215463,106.0
1.0812153,-10.734459,0.060089473,122.0
1.6615468,-10.740772,2.4336715,114.0
0.69222957,-10.525466,-0.0036080377,84.0
1.0406553,-10.447142,2.289003,144.0
0.1343235,-10.240523,-0.39140543,1.0
0.1919693,-10.03137,1.5898414,203.0
-0.21842201,-10.055017,-0.4518887,75.0
-0.3330927,-9.805453,1.4644014,158.0
0.28148854,-10.327114,-0.04512558,60.0
0.400656,-10.133521,2.134745,110.0
-0.07735661,-10.251526,-0.11431964,69.0
-0.12807855,-9.876118,1.9892033,112.0
0.5718966,-10.278079,1.059488,105.0
-0.5342815,-11.082743,-0.1747401,73.0
-0.78097534,-10.444042,2.01134,112.0
-0.9404594,-11.176487,-0.22714986,141.0
-1.3931341,-10.785179,1.9897599,76.0
0.14283745,-10.090926,0.9962951,170.0
-0.2094659,-9.91495,0.9087916,117.0
0.29077202,-10.154241,1.3441819,120.0
-0.06960906,-9.970447,1.266373,141.0
-0.60665315,-10.189126,0.88910496,165.0
-1.0502567,-11.014733,0.89028066,95.0
-0.4519537,-9.964648,1.2106829,58.0
-0.8664165,-10.734964,1.2420955,54.0
0.9482573,-10.46782,0.42201665,129.0
0.563194,-10.317177,0.35454708,96.0
1.1026095,-10.53222,0.788769,205.0
0.7166491,-10.363668,0.7181495,90.0
0.1689058,-10.125845,0.29771817,122.0
-0.18453375,-9.925123,0.22543469,136.0
-0.320855,-9.758361,2.4912775,191.0
0.31837586,-10.172808,0.64385915,216.0
-0.043570668,-9.982314,0.5668912,132.0
-0.58975583,-10.22427,0.1874359,89.0
-1.0297942,-11.130482,0.14144476,114.0
-0.42940593,-9.994914,0.51496065,123.0
-0.84112614,-10.747787,0.50419044,75.0
1.0179644,-10.799797,-0.2988397,56.0
1.4543071,-10.641579,1.8376094,89.0
0.6081002,-10.502769,-0.35625976,95.0
1.1538395,-10.775163,0.060970057,85.0
1.7371604,-10.780169,2.4451866,95.0
0.76086766,-10.556818,-0.0031498964,76.0
1.1107197,-10.483127,2.2985098,127.0
0.19921932,-10.265463,-0.39204884,1.0
0.2561318,-10.07141,1.5965515,201.0
-0.15618281,-10.110157,-0.45357367,86.0
-0.2724767,-9.840948,1.4695343,147.0
0.3475055,-10.35712,-0.044838376,126.0
0.4660008,-10.165967,2.1422741,104.0
-0.012988713,-10.265809,-0.11428751,68.0
-0.06636559,-9.915912,1.9972311,128.0
0.99293566,-10.450685,1.1423525,199.0
0.6378909,-10.298079,1.062263,100.0
-0.45814937,-10.924012,-0.17420144,70.0
-0.70778304,-10.335145,1.9891043,111.0
-0.87402815,-11.230022,-0.22753201,77.0
-1.3258283,-10.797622,1.9904917,123.0
0.20681742,-10.11566,0.99920094,173.0
-0.14750063,-9.935958,0.91089225,120.0
0.35529718,-10.171989,1.3470719,127.0
-0.0070161605,-9.990491,1.2691648,146.0
-0.5365118,-10.073497,0.8770842,111.0
-0.9750819,-10.9556675,0.8841708,64.0
-0.3831766,-9.800922,1.1881547,159.0
-0.78642553,-10.576021,1.2209814,96.0
1.0157781,-10.479543,0.4229744,206.0
0.6290646,-10.331384,0.35540417,130.0
1.171895,-10.552801,0.79121107,204.0
0.7832124,-10.3788395,0.7197928,118.0
0.23332283,-10.156545,0.2990936,96.0
-0.12265688,-9.960061,0.22667843,149.0
-0.26031247,-9.787281,2.4982903,191.0
0.38370666,-10.206472,0.6466174,212.0
0.019146238,-10.018302,0.5694276,125.0
-0.5180094,-10.076035,0.1826095,88.0
-0.9619432,-11.160632,0.14204432,97.0
-0.36155522,-9.851812,0.5054496,146.0
-0.75990725,-10.567694,0.49312866,131.0
1.0831503,-10.767326,-0.2984539,90.0
1.5276439,-10.677079,1.8455064,82.0
0.67594254,-10.528677,-0.3568824,79.0
0.93975925,-10.39911,1.7308794,158.0
1.2254138,-10.801471,0.0615938,158.0
0.83145154,-10.607661,-0.002437232,99.0
1.1814914,-10.520583,2.308449,138.0
0.26443383,-10.289991,-0.39269227,1.0
0.32033893,-10.097227,1.6010249,200.0
-0.09281253,-10.124931,-0.45401052,72.0
-0.21110308,-9.86223,1.4725536,138.0
0.41366,-10.380709,-0.044605024,38.0
0.5314518,-10.192132,2.1485486,110.0
0.05159813,-10.293689,-0.11422326,70.0
-0.004133494,-9.945522,2.003252,123.0
1.0700042,-10.554826,1.1559211,198.0
0.7059982,-10.345406,1.0682755,94.0
-0.37241802,-10.420966,-0.17251895,84.0
-0.6343388,-10.198314,1.9615015,105.0
-0.79496825,-11.119607,-0.22660847,80.0
-1.2616553,-10.836981,1.9963466,76.0
0.27139935,-10.14992,1.0032244,165.0
-0.08549062,-9.976465,0.9150935,108.0
0.4207405,-10.205145,1.3522741,116.0
0.055882048,-10.025986,1.2741902,144.0
-0.46766898,-9.953417,0.86466277,113.0
-0.89096177,-10.781004,0.86732227,85.0
-0.32323202,-9.856624,1.195396,123.0
-0.7101282,-10.44025,1.20292,89.0
1.0851556,-10.506719,0.42478353,211.0
0.69708633,-10.375071,0.35768974,99.0
1.2438438,-10.59271,0.7953975,196.0
0.29794496,-10.180841,0.30021113,170.0
-0.060348257,-9.994611,0.22792217,152.0
-0.19950587,-9.819695,2.506305,184.0
0.44919884,-10.233741,0.648916,219.0
0.082239866,-10.0419235,0.5711186,141.0
-0.44995663,-9.969248,0.1791167,98.0
-0.88496315,-11.082761,0.13994585,94.0
-0.30043936,-9.881819,0.5072736,154.0
-0.6838097,-10.428841,0.48456472,84.0
1.1484013,-10.73844,-0.29812744,85.0
1.6020741,-10.715973,1.8540901,77.0
0.74522877,-10.570105,-0.35783705,77.0
1.0115898,-10.461714,1.7425457,116.0
1.2860086,-10.734008,0.060493074,76.0
1.251872,-10.549805,2.3166595,140.0
0.33050737,-10.33009,-0.39373162,23.0
0.3851175,-10.1285515,1.6064569,200.0
-0.029399658,-10.167294,-0.45532107,79.0
-0.14954068,-9.887084,1.4761767,141.0
0.4793558,-10.387893,-0.04451527,45.0
0.59725,-10.217875,2.154823,109.0
0.12885557,-11.643099,-0.11112522,91.0
0.058445614,-9.9688635,2.0080686,126.0
1.1399797,-10.581443,1.1600401,201.0
0.7728556,-10.366524,1.0712817,123.0
-0.2976993,-10.08723,-0.17140174,52.0
-0.5631706,-10.070773,1.9358155,117.0
-0.68924934,-10.589599,-0.22234105,67.0
-1.1946338,-10.854465,1.9981762,125.0
0.33586326,-10.167877,1.0054597,159.0
-0.022865573,-9.990727,0.9165639,111.0
0.48612502,-10.227996,1.3560312,127.0
0.11907029,-10.045239,1.276982,144.0
-0.40089446,-9.846793,0.8536438,124.0
-0.80923086,-10.607708,0.8506589,82.0
-0.26187617,-9.8822365,1.1986142,118.0
-0.6354424,-10.301965,1.1846042,77.0
1.1553575,-10.537406,0.42680547,215.0
0.7642563,-10.398383,0.35902297,145.0
1.315843,-10.628176,0.79923505,203.0
0.36348152,-10.220699,0.30201638,133.0
0.0024111655,-10.016778,0.22872695,149.0
-0.13820864,-9.845923,2.512817,179.0
0.51567227,-10.272536,0.652134,221.0
0.14568074,-10.069137,0.5730914,129.0
-0.3845161,-9.895968,0.1767035,77.0
-0.80359036,-10.932592,0.1360487,144.0
-0.23900469,-9.91344,0.50922793,150.0
-0.6091215,-10.283477,0.47564396,146.0
1.6788963,-10.766027,1.8647338,98.0
0.8144648,-10.603099,-0.3586257,78.0
1.0804756,-10.486544,1.7478789,109.0
1.348091,-10.684063,0.059722565,77.0
0.97249246,-10.684022,-0.0013173309,35.0
1.3240975,-10.590183,2.327463,142.0
0.3967735,-10.361771,-0.394573,37.0
0.45002818,-10.1535425,1.6109303,199.0
0.03452521,-10.197263,-0.45625716,76.0
-0.087846644,-9.927367,1.4822154,154.0
0.5454841,-10.400651,-0.04437167,62.0
0.6637834,-10.249046,2.1623526,95.0
0.20288202,-11.698052,-0.110996716,79.0
0.12149607,-10.009443,2.0164979,117.0
1.1956995,-10.627235,1.1663399,193.0
-0.2500246,-10.082521,-0.17138179,130.0
-0.5093442,-9.943919,1.9105128,115.0
-0.63598305,-10.538836,-0.22191112,53.0
-1.1474515,-10.8971195,2.0051289,80.0
0.3852743,-10.203914,1.0097066,174.0
0.024229363,-10.028514,0.9205551,102.0
0.5364616,-10.265114,1.3618113,129.0
0.16680901,-10.072289,1.2808906,138.0
-0.35293633,-9.802831,0.84903586,204.0
-0.74843657,-10.464435,0.83695793,34.0
-0.21581265,-9.909121,1.2021008,114.0
-0.57906973,-10.172163,1.1675602,129.0
1.2096175,-10.57152,0.42893383,213.0
0.8173511,-10.448449,0.36159423,103.0
1.3733904,-10.67915,0.8042937,201.0
0.9797412,-10.554323,0.7355685,99.0
0.41341352,-10.2607975,0.30382162,126.0
0.04973659,-10.058627,0.23026334,140.0
-0.09231666,-9.890996,2.524338,168.0
0.5661139,-10.305828,0.65489227,218.0
0.193916,-10.114218,0.5763324,129.0
-0.3362118,-9.845723,0.17505236,143.0
-0.74304736,-10.808616,0.13285103,91.0
-0.19283994,-9.946383,0.51131254,158.0
-0.55389965,-10.1666355,0.46850735,78.0
1.2671195,-10.73112,-0.2982165,107.0
1.7356226,-10.794947,1.8712574,86.0
1.1346544,-10.526441,1.7555454,120.0
1.407116,-10.743006,0.060933366,78.0
2.0251334,-10.92028,2.487704,164.0
1.0161006,-10.607641,-0.0022336137,49.0
1.3789418,-10.622566,2.3361056,146.0
0.44658577,-10.381757,-0.39511743,22.0
0.4989777,-10.172998,1.6144451,199.0
0.08273673,-10.222974,-0.45706844,77.0
-0.041186508,-9.947442,1.4852347,158.0
0.59649676,-10.431905,-0.044066515,44.0
0.7141652,-10.275066,2.1686268,143.0
0.25914294,-11.7529545,-0.1108682,82.0
0.16875003,-10.014637,2.017702,119.0
1.2660199,-10.649077,1.1699743,202.0
-0.18719746,-10.11589,-0.17148818,60.0
-0.44265074,-9.848868,1.8913442,119.0
-0.59389615,-10.973934,-0.22535053,128.0
-1.0793551,-10.908027,2.0058608,137.0
0.4509335,-10.235043,1.0135065,175.0
0.08733236,-10.042087,0.92202556,146.0
0.60310113,-10.297097,1.3670133,119.0
0.23091611,-10.110642,1.2864742,151.0
-0.2919965,-9.828725,0.85144,207.0
-0.6725311,-10.317924,0.82288665,30.0
-0.15405406,-9.947934,1.2071964,120.0
-0.5085771,-10.0507965,1.1515338,79.0
1.2811251,-10.605339,0.43116865,207.0
1.4450567,-10.703867,0.807259,196.0
1.0412138,-10.498362,0.7314603,130.0
0.47962028,-10.293921,0.30536896,126.0
0.1132298,-10.090094,0.23143391,147.0
0.63337183,-10.341871,0.6579571,215.0
0.25834978,-10.150695,0.5790098,136.0
-0.27542546,-9.889606,0.17638597,84.0
-0.62859905,-10.174346,2.5022955,146.0
-0.661902,-10.60756,0.12770478,52.0
-0.13069466,-9.979329,0.5133972,164.0
-0.4821051,-10.012393,0.4591108,174.0
1.809658,-10.82074,1.877781,82.0
1.2062684,-10.568096,1.7638785,118.0
1.4883816,-10.832979,0.062767915,73.0
2.1063268,-10.972441,2.5027623,106.0
1.0956907,-10.73039,-0.00057921425,67.0
1.4518946,-10.660142,2.3464768,147.0
0.5143666,-10.428665,-0.39635476,22.0
0.5654863,-10.214997,1.6217942,197.0
0.14751226,-10.266228,-0.4584414,81.0
0.021318814,-9.981114,1.4903677,142.0
0.66451144,-10.465868,-0.043725457,61.0
0.7835657,-10.332772,2.1820123,115.0
0.3343131,-11.801077,-0.11075346,80.0
0.23286898,-10.070186,2.0293424,115.0
1.3391669,-10.690147,1.1760317,193.0
0.9511398,-10.343708,1.0703567,155.0
-0.12406297,-10.158863,-0.17162783,74.0
-0.37731546,-9.7572975,1.8729422,171.0
-0.5201709,-10.881571,-0.22458622,65.0
-1.0045089,-10.848037,1.9934192,46.0
0.5167912,-10.261779,1.0168594,172.0
0.1509418,-10.081115,0.9262268,120.0
0.66989964,-10.324698,1.3716375,121.0
0.29518965,-10.136708,1.2903827,144.0
-0.2309151,-9.862198,0.8546455,201.0
-0.59341687,-10.087393,0.8010391,1.0
-0.0917595,-9.978435,1.2112193,119.0
-0.4405507,-9.948768,1.1380514,98.0
1.353361,-10.640656,0.43350983,211.0
0.9537139,-10.495059,0.36435595,106.0
1.5213276,-10.757688,0.81284094,197.0
1.113522,-10.553074,0.73655456,70.0
0.5457122,-10.316642,0.3064865,121.0
0.1770275,-10.115162,0.23238501,145.0
0.70096666,-10.375484,0.6608686,218.0
0.3228938,-10.174795,0.5808416,143.0
-0.21359411,-9.90713,0.17689401,94.0
-0.5537775,-9.974601,2.451581,153.0
-0.587366,-10.4757805,0.12430727,171.0
-0.06808581,-9.99991,0.51470006,165.0
-0.41629758,-9.949405,0.45518565,112.0
1.0137134,-10.762662,-0.36227837,48.0
1.2754319,-10.583808,1.7678784,115.0
1.5512278,-10.787796,0.062107477,97.0
2.181741,-10.991499,2.5102913,96.0
1.1654205,-10.745168,-0.00029923898,78.0
1.5229255,-10.679814,2.352959,123.0
0.5809157,-10.4431925,-0.39680022,23.0
0.63041,-10.223064,1.6237115,197.0
0.23970471,-11.7481165,-0.5047471,84.0
0.084169954,-10.002531,1.493689,145.0
0.73240393,-10.491408,-0.043456204,45.0
0.8486365,-10.329594,2.1824307,70.0
0.40871736,-11.806739,-0.1107351,75.0
0.29661965,-10.086151,2.032955,116.0
1.4115652,-10.720879,1.1808777,191.0
1.0303966,-10.485835,1.0877004,100.0
-0.06533548,-11.459425,-0.17595042,82.0
-0.31665534,-9.781058,1.8771594,178.0
-0.4400896,-10.614886,-0.22243658,82.0
-0.9207911,-10.677856,1.9604856,96.0
0.5832354,-10.292058,1.0206593,177.0
0.21485382,-10.109796,0.92937773,110.0
0.73735756,-10.355813,1.3768396,85.0
0.36006427,-10.17028,1.295408,142.0
-0.16930467,-9.88733,0.85704964,205.0
-0.52818084,-10.057118,0.7978916,77.0
-0.029080808,-10.000615,1.2141694,118.0
-0.37350938,-9.838356,1.1235514,179.0
1.4255548,-10.671524,0.43563822,211.0
1.0230472,-10.524657,0.3660701,113.0
1.595086,-10.789295,0.81650406,197.0
1.1815491,-10.56172,0.7378692,138.0
0.6127185,-10.348908,0.30803385,128.0
0.24131873,-10.1478195,0.23362875,143.0
0.76870716,-10.404678,0.6634736,221.0
0.38782266,-10.200478,0.5828144,131.0
-0.15179123,-9.942257,0.1779736,103.0
-0.48551565,-9.859626,2.4221184,112.0
-0.51585466,-10.369445,0.12155928,90.0
-0.005193382,-10.040056,0.51730585,167.0
-0.34935072,-9.834116,0.44816798,192.0
1.0817093,-10.760059,-0.3623614,84.0
1.3485079,-10.62842,1.7768781,110.0
2.2634056,-11.038691,2.524464,127.0
1.2380719,-10.783339,0.00028616388,92.0
1.5990918,-10.731858,2.3667872,139.0
0.6490696,-10.479242,-0.39779007,34.0
0.6975245,-10.260261,1.6304215,203.0
0.3148119,-11.798337,-0.50636965,82.0
0.14734113,-10.027505,1.497614,152.0
0.7998651,-10.506537,-0.0432767,58.0
0.42854565,-10.417006,-0.11392034,67.0
0.36090988,-10.111504,2.0385745,115.0
1.4855033,-10.758984,1.1866928,190.0
1.0999122,-10.514726,1.0918628,94.0
0.0067424364,-11.49161,-0.17605683,91.0
-0.25594702,-9.814252,1.8832933,174.0
-0.34789053,-9.929936,-0.216959,48.0
-0.8418175,-10.538414,1.9334067,95.0
0.65033805,-10.325873,1.0249063,177.0
0.2793352,-10.146024,0.9333689,114.0
0.8049192,-10.38254,1.3814638,176.0
0.42560804,-10.209373,1.3012708,143.0
-0.10752731,-9.927997,0.86105657,205.0
-0.45883858,-9.932937,0.7860421,103.0
0.033969477,-10.040238,1.2195333,112.0
-0.3136931,-9.899987,1.131183,94.0
1.4995925,-10.71179,0.43829867,207.0
1.0915782,-10.541871,0.3672129,109.0
1.6717608,-10.836146,0.82156265,188.0
1.2550244,-10.615464,0.74296343,70.0
0.68095905,-10.392702,0.31009698,124.0
0.30597124,-10.178069,0.23479933,153.0
0.83635217,-10.427466,0.66561896,220.0
0.45350873,-10.235711,0.5854918,136.0
-0.089472145,-9.965002,0.17867216,102.0
-0.4199098,-9.773279,2.3999007,104.0
-0.44434237,-10.232669,0.118061826,116.0
0.058029786,-10.057852,0.51847845,157.0
-0.28805438,-9.852081,0.44911954,190.0
1.1459546,-10.721232,-0.3616973,78.0
1.419113,-10.649066,1.781878,111.0
2.3445272,-11.079565,2.5373077,94.0
1.2925361,-10.6641445,-0.0011391648,69.0
1.6706382,-10.748621,2.3728373,129.0
0.7178395,-10.516842,-0.39882943,22.0
0.7654315,-10.300953,1.6377708,200.0
0.34342328,-10.339547,-0.46087524,74.0
0.21090436,-10.056031,1.502143,157.0
0.8687226,-10.535183,-0.042971544,46.0
0.97441435,-10.277234,2.1736465,167.0
0.4958969,-10.456064,-0.11382395,82.0
0.42568687,-10.14036,2.0449967,110.0
1.5602633,-10.798546,1.1927502,195.0
1.1709077,-10.55303,1.0971814,109.0
0.08015528,-11.631334,-0.17652233,97.0
-0.19466016,-9.8372555,1.8875104,165.0
-0.28549245,-9.931926,-0.216959,81.0
-0.764633,-10.398406,1.906328,94.0
0.7177473,-10.357267,1.0289298,180.0
0.34377432,-10.1659355,0.9356796,116.0
0.49047446,-10.222324,1.3035043,142.0
-0.045205817,-9.952355,0.8634607,199.0
-0.39216292,-9.83415,0.7765995,86.0
0.097331144,-10.063609,1.2227516,120.0
-0.25170162,-9.909695,1.1322005,118.0
1.5744854,-10.753521,0.44106555,208.0
1.1612236,-10.566584,0.3687366,102.0
1.7478079,-10.874593,0.8259235,199.0
1.3243678,-10.629131,0.74477106,134.0
0.7491856,-10.428073,0.31181628,136.0
0.37067026,-10.197918,0.2356041,157.0
0.51916844,-10.260557,0.5874646,144.0
-0.026882377,-10.001349,0.17981526,110.0
-0.35735402,-9.742751,2.3916895,177.0
-0.37621072,-10.137364,0.11561362,88.0
0.121672995,-10.089217,0.52056307,162.0
-0.2271951,-9.895609,0.45161736,180.0
2.0968602,-10.853067,1.8922015,87.0
1.218384,-10.759528,-0.36265194,146.0
1.4932595,-10.692686,1.7908778,107.0
2.4237363,-11.108425,2.5474942,124.0
1.3625071,-10.679624,-0.00083373726,43.0
1.745851,-10.786118,2.3836405,119.0
0.7863446,-10.544021,-0.39962134,23.0
0.832902,-10.32939,1.6432027,199.0
0.40980607,-10.37514,-0.462061,83.0
0.2749316,-10.088108,1.5072758,162.0
1.0556239,-10.432381,2.208365,125.0
0.56272167,-10.474712,-0.113773465,72.0
0.49084067,-10.1688,2.051419,97.0
1.6191468,-10.844073,1.1992923,186.0
1.2262394,-10.596742,1.1029626,100.0
0.13557974,-11.676823,-0.17667529,89.0
-0.14873518,-9.87143,1.8940277,168.0
-0.24275292,-10.089103,-0.21820101,130.0
-0.7066027,-10.274407,1.8825426,96.0
0.7698603,-10.397368,1.0338473,162.0
0.39341888,-10.2119055,0.9407211,116.0
0.5409474,-10.265391,1.3099256,152.0
0.0017555525,-9.980317,0.86626554,200.0
-0.3448533,-9.810019,0.77419263,151.0
0.14540376,-10.102672,1.2281154,123.0
-0.20608291,-9.958368,1.1383058,85.0
1.6308869,-10.783491,0.4430875,209.0
1.2125709,-10.57489,0.3694032,141.0
1.8056147,-10.905536,0.8294122,193.0
1.3814979,-10.678136,0.74937236,71.0
0.79941344,-10.438371,0.312418,129.0
0.420049,-10.230009,0.23684785,155.0
0.960027,-10.514931,0.67312765,214.0
0.5693207,-10.291864,0.5898601,143.0
0.02037779,-10.033349,0.18083134,86.0
-0.31172836,-9.754026,2.3941047,184.0
-0.32087427,-9.919224,0.11011763,47.0
-0.9170728,-10.608654,2.4995904,38.0
0.16970319,-10.114472,0.52225685,179.0
-0.18096599,-9.916531,0.4528068,193.0
2.1804404,-11.005357,1.9210427,70.0
1.2651528,-10.719902,-0.3619463,74.0
1.5500312,-10.7304325,1.7985443,103.0
2.4910414,-11.163477,2.5629952,98.0
0.84120476,-10.603969,-0.40120512,33.0
0.4604654,-10.415036,-0.46337152,82.0
0.32341453,-10.1183195,1.5121068,158.0
0.9934424,-10.618565,-0.042127877,36.0
1.1091799,-10.468124,2.2171493,122.0
0.61455834,-10.515874,-0.113672495,83.0
0.5404506,-10.199639,2.0582426,147.0
1.6940508,-10.876829,1.2046227,187.0
1.297773,-10.630248,1.1078188,102.0
0.20937617,-11.697736,-0.17674844,78.0
-0.08693297,-9.905539,1.9005451,175.0
-0.17991087,-10.1184225,-0.21842393,63.0
-0.63318145,-10.141293,1.8569275,94.0
0.8374563,-10.420057,1.0369767,109.0
0.45885047,-10.239038,0.94387203,120.0
0.99010485,-10.428145,1.3904229,183.0
0.6070138,-10.289471,1.3138341,145.0
0.064716905,-10.009956,0.86927074,196.0
-0.28554875,-9.8876295,0.78122824,75.0
0.20946193,-10.127317,1.231602,131.0
-0.14363952,-9.967401,1.1393234,154.0
1.7102541,-10.846003,0.44702497,203.0
1.2872595,-10.636493,0.3727363,110.0
1.4535869,-10.706781,0.75249463,138.0
0.4860383,-10.265103,0.23823792,155.0
1.0264701,-10.512659,0.67343414,222.0
0.63670653,-10.333888,0.59310114,130.0
0.08370777,-10.0610075,0.18172042,107.0
-0.25139722,-9.796538,2.4042475,171.0
-0.26006097,-9.975005,0.111466646,165.0
-0.84133077,-10.5036745,2.473198,82.0
0.23450124,-10.163084,0.52551407,173.0
-0.11929893,-9.963386,0.4555425,187.0
2.2591112,-11.037749,1.929283,68.0
1.333698,-10.721664,-0.36215386,79.0
1.6235228,-10.761443,1.805544,135.0
2.5738964,-11.202706,2.575839,120.0
0.9526887,-10.386441,1.6540667,180.0
0.52773744,-10.449874,-0.46455726,81.0
0.38827196,-10.151651,1.5175415,149.0
1.0643953,-10.653895,-0.041750923,38.0
1.1798156,-10.503697,2.2263517,116.0
0.6835025,-10.557714,-0.11356693,68.0
0.6068792,-10.237121,2.0666718,111.0
1.7703946,-10.9149475,1.2106802,180.0
1.370524,-10.669185,1.1133689,94.0
0.28328523,-11.712184,-0.17680164,77.0
-0.02470541,-9.93337,1.9059123,175.0
-0.116817966,-10.155349,-0.21871056,84.0
-0.5618036,-10.013555,1.8324102,97.0
0.52493125,-10.271711,0.9476532,122.0
1.066176,-10.524083,1.4054513,119.0
0.67440534,-10.328936,1.3199761,151.0
0.12813902,-10.045168,0.87287694,200.0
-0.22346678,-9.891219,0.7814134,121.0
0.2738355,-10.151556,1.2350885,133.0
-0.0814336,-10.009763,1.1446655,89.0
1.7842555,-10.870506,0.44894052,207.0
1.357298,-10.653963,0.37397432,115.0
1.5296893,-10.760602,0.7577532,65.0
0.5522789,-10.295779,0.23948166,151.0
1.0948131,-10.527816,0.67511976,219.0
0.70319873,-10.353572,0.59479207,136.0
0.14712025,-10.072275,0.18210146,105.0
-0.19014134,-9.815389,2.4085944,175.0
-0.19908276,-10.0543995,0.11341522,89.0
-0.7641534,-10.361305,2.4380078,77.0
0.2989158,-10.179363,0.52668667,163.0
-0.056787796,-9.975917,0.45625615,186.0
2.3444345,-11.098492,1.9426736,99.0
1.70019,-10.809489,1.8155438,111.0
2.6573424,-11.241333,2.588683,95.0
1.5567507,-10.723775,5.7093202e-05,49.0
1.9582624,-10.902386,2.416915,99.0
1.0228423,-10.429363,1.6620549,199.0
0.59546536,-10.484276,-0.46574298,83.0
0.45356092,-10.1845665,1.5229764,144.0
1.1414236,-10.740449,-0.040907256,62.0
1.2511765,-10.540736,2.2359726,109.0
0.7532724,-10.603092,-0.11345219,77.0
0.67317826,-10.264391,2.0730941,107.0
1.8439462,-10.932963,1.2143147,129.0
1.4422446,-10.695809,1.1175313,120.0
0.037868455,-9.96081,1.9112796,177.0
-0.053499218,-10.223879,-0.21925195,77.0
-0.492158,-9.887289,1.8082589,108.0
0.9688929,-10.414646,1.0376472,197.0
0.59122056,-10.299985,0.9510142,128.0
1.1387479,-10.576194,1.4141215,110.0
0.7417664,-10.360056,1.3250015,119.0
0.1919223,-10.075996,0.8760825,200.0
-0.16189942,-9.924285,0.7843758,92.0
0.3389411,-10.187268,1.2401841,131.0
-0.018600848,-10.025948,1.1467005,111.0
1.4315242,-10.700682,0.3766408,107.0
2.0386653,-11.018409,0.84266925,200.0
1.6016082,-10.78036,0.76021814,134.0
0.99660033,-10.427415,0.3126759,180.0
0.61857706,-10.32004,0.24050592,147.0
1.1656123,-10.562344,0.67833775,217.0
0.7701071,-10.374817,0.59662396,153.0
0.21127288,-10.109123,0.18330805,90.0
-0.1288081,-9.847441,2.4163225,177.0
-0.13634047,-10.08344,0.11411471,107.0
-0.6894723,-10.228091,2.4051328,82.0
0.36406985,-10.209193,0.5287713,160.0
0.0058443043,-10.010016,0.4582782,180.0
2.423,-11.123955,1.9498838,79.0
1.7775247,-10.856994,1.8255435,119.0
2.0804956,-11.099384,0.069335595,61.0
2.7441585,-11.290717,2.604184,127.0
2.0366306,-10.943639,2.429015,163.0
1.0608692,-10.785171,-0.40615445,1.0
1.094408,-10.479664,1.6713213,198.0
0.66340226,-10.514248,-0.46680388,78.0
0.51889306,-10.209162,1.5272034,144.0
1.2186708,-10.818502,-0.04013539,31.0
1.3242812,-10.586991,2.247685,109.0
0.822135,-10.628065,-0.113383345,80.0
0.740937,-10.306868,2.0827274,120.0
1.5170952,-10.741629,1.1240063,96.0
0.10090517,-9.997667,1.9185636,175.0
0.010721166,-10.244013,-0.21941116,105.0
-0.42519486,-9.78412,1.7884988,92.0
1.0445298,-10.509197,1.049047,164.0
0.6573956,-10.319889,0.95353496,128.0
1.2076849,-10.590454,1.4173006,118.0
0.8090951,-10.384811,1.3291892,143.0
0.2558804,-10.098462,0.87848663,199.0
-0.09973292,-9.941037,0.78585696,112.0
0.40417698,-10.214641,1.244207,121.0
0.044474903,-10.05959,1.1510252,118.0
1.5028338,-10.721159,0.37806928,99.0
2.1158004,-11.046461,0.8463324,193.0
1.680471,-10.842985,0.7662984,67.0
1.0753111,-10.548144,0.31817758,136.0
0.6863556,-10.361824,0.24218862,152.0
1.2364186,-10.592436,0.68124926,213.0
0.8385605,-10.411541,0.59958315,145.0
0.2764194,-10.163544,0.1850862,98.0
-0.06707959,-9.879108,2.4240503,174.0
-0.07337062,-10.126082,0.115163945,117.0
-0.6179659,-10.117656,2.377814,83.0
0.4296105,-10.2386055,0.5308559,173.0
0.068864055,-10.035736,0.45982447,184.0
2.5045867,-11.160398,1.9591542,88.0
1.8493054,-10.8670025,1.82921,92.0
2.1613376,-11.1430025,0.070399635,86.0
2.8316994,-11.339452,2.6196852,110.0
2.11596,-10.986254,2.4415467,119.0
1.1216186,-10.712684,-0.40452117,21.0
1.1639919,-10.505933,1.6767533,201.0
0.7322775,-10.551757,-0.46811444,77.0
0.5849875,-10.241234,1.5326382,147.0
1.2695767,-10.669664,-0.041409865,29.0
1.3962059,-10.619172,2.2564692,108.0
0.8085113,-10.339128,2.090354,117.0
1.5911456,-10.777099,1.1293249,120.0
0.16418971,-10.022349,1.9235475,169.0
0.07517107,-10.259742,-0.21953855,82.0
-0.3628633,-9.764986,1.7844735,134.0
1.1156471,-10.549852,1.0544116,164.0
0.72586924,-10.369132,0.95920664,124.0
1.2804508,-10.63373,1.4248147,114.0
0.32032904,-10.126487,0.88149184,203.0
-0.0375354,-9.987268,0.79011536,93.0
0.4698649,-10.243574,1.2484981,125.0
0.10800713,-10.096802,1.1558585,92.0
2.0197873,-11.001858,0.4579861,209.0
1.5770315,-10.758957,0.38035482,135.0
2.1953213,-11.083745,0.8508676,197.0
1.7517058,-10.851896,0.7679417,137.0
1.1441927,-10.565013,0.31920916,127.0
0.75369847,-10.389207,0.24335921,152.0
1.3074014,-10.620075,0.6840076,217.0
0.3417618,-10.203559,0.18641981,83.0
-0.004961226,-9.908447,2.4312952,179.0
-0.009899974,-10.178328,0.116463,90.0
-0.5475438,-10.000901,2.3491063,92.0
0.49613598,-10.279555,0.5337223,170.0
0.13240701,-10.079024,0.46244124,190.0
2.5894082,-11.207766,1.9704847,81.0
2.2547078,-11.244839,0.0725644,90.0
2.915571,-11.370534,2.6312003,106.0
2.1940153,-11.018723,2.4519181,112.0
1.1801527,-10.627942,-0.40259093,22.0
1.2351164,-10.541542,1.6837829,202.0
0.801356,-10.5848255,-0.46930015,75.0
0.65150535,-10.272877,1.538073,141.0
1.3373482,-10.667429,-0.041356016,60.0
1.4683162,-10.648929,2.2648351,110.0
2.060869,-11.049695,1.2329715,191.0
1.6475329,-10.806806,1.1337186,91.0
0.21200691,-10.046976,1.9285314,164.0
0.12349784,-10.257274,-0.21952264,84.0
-0.317725,-9.792133,1.7892306,81.0
1.1689032,-10.576078,1.057988,158.0
0.776168,-10.385433,0.9613073,115.0
1.3345399,-10.65899,1.4294388,105.0
0.9294113,-10.446314,1.3392397,122.0
0.3694183,-10.160658,0.88509804,199.0
0.00951365,-10.001275,0.7914114,117.0
0.5194841,-10.266976,1.2519846,126.0
0.1557718,-10.110065,1.1576391,135.0
2.0798254,-11.03538,0.4603273,208.0
1.6356885,-10.804751,0.38292608,105.0
2.2579231,-11.124025,0.85540295,195.0
1.1985322,-10.599205,0.32092845,129.0
0.80519986,-10.419421,0.24460295,154.0
1.3635943,-10.661257,0.6876853,219.0
0.9565514,-10.441432,0.60240144,198.0
0.39192906,-10.253767,0.18807095,85.0
0.041913476,-9.937471,2.4385402,179.0
0.038109463,-10.204253,0.117112525,134.0
-0.4932278,-9.865416,2.3162315,79.0
0.54610515,-10.305002,0.5355463,161.0
0.1803125,-10.104239,0.4639875,183.0
2.6545055,-11.247193,1.979755,80.0
1.6708765,-10.793711,-0.3646028,99.0
2.3145719,-11.267376,0.07318815,78.0
2.9845152,-11.415136,2.64493,98.0
2.2563615,-11.05994,2.4635856,118.0
1.2896333,-10.574791,1.6901735,200.0
0.8540434,-10.616804,-0.47042346,73.0
0.7017352,-10.297311,1.5423001,119.0
1.5268795,-10.699961,2.277384,113.0
1.0211728,-10.779554,-0.11299781,127.0
0.92606384,-10.374507,2.099586,142.0
2.140889,-11.091089,1.2397559,183.0
1.7243356,-10.853154,1.1404248,117.0
0.565889,-10.502383,-0.17281821,78.0
0.27634126,-10.086649,1.9365822,170.0
0.1885642,-10.29429,-0.21982518,76.0
-0.25674832,-9.813591,1.7928898,122.0
1.2409595,-10.615891,1.0633527,165.0
1.4090807,-10.70728,1.43782,108.0
1.0005509,-10.499424,1.3476152,148.0
0.43440592,-10.183979,0.8877025,201.0
0.07254969,-10.038854,0.7949292,96.0
0.5857303,-10.293187,1.2560074,131.0
0.22003338,-10.146571,1.1624725,99.0
2.1587656,-11.071084,0.46298775,202.0
1.7118534,-10.847556,0.38549733,100.0
2.3388987,-11.16225,0.86011267,191.0
1.2696795,-10.629154,0.32256177,92.0
1.4388973,-10.713731,0.6924357,214.0
1.0290003,-10.506708,0.6074743,155.0
0.45913297,-10.311007,0.18997611,66.0
0.104813896,-9.973885,2.447717,181.0
0.10262461,-10.253795,0.11836161,123.0
-0.42705187,-9.776969,2.294469,88.0
0.61352754,-10.345192,0.53841263,164.0
0.24454582,-10.136839,0.46600953,194.0
2.7415009,-11.29728,1.9917722,89.0
1.7405497,-10.7948475,-0.36485186,63.0
2.0627658,-10.973018,1.8532095,159.0
3.0617719,-11.416871,2.6498017,69.0
2.3369777,-11.099069,2.4756856,118.0
1.3611517,-10.605635,1.6965641,197.0
0.7694223,-10.334108,1.5486406,131.0
1.7110575,-12.504329,-0.024572462,1.0
1.597876,-10.715295,2.282822,112.0
1.0876977,-10.760983,-0.11302535,46.0
0.9956137,-10.415301,2.1092193,155.0
2.2183738,-11.116343,1.2446017,186.0
1.799222,-10.883278,1.1452811,97.0
0.63409805,-10.534552,-0.17293791,74.0
0.34034204,-10.102368,1.9400326,173.0
0.25378388,-10.316895,-0.22001626,91.0
-0.1957734,-9.846462,1.7987447,91.0
1.3115867,-10.639438,1.0669291,152.0
1.479619,-10.721735,1.4412881,102.0
1.0686616,-10.514607,1.3506862,145.0
0.5001062,-10.214834,0.8911084,203.0
0.13592112,-10.064087,0.79733616,120.0
0.65219736,-10.316992,1.2597622,126.0
0.28434786,-10.166802,1.1652708,140.0
2.2402263,-11.1160145,0.4661803,209.0
2.4225645,-11.209627,0.8656946,195.0
1.9636472,-10.959357,0.7796092,67.0
1.3404906,-10.652679,0.32393718,162.0
0.93816894,-10.432372,0.24548088,171.0
1.5120976,-10.745935,0.6956537,216.0
1.0982448,-10.531791,0.60972893,155.0
0.5280202,-10.385771,0.19245282,74.0
0.16813698,-10.007957,2.456411,171.0
0.16767798,-10.296929,0.119460806,112.0
-0.3646926,-9.756129,2.2889128,139.0
0.68120724,-10.380957,0.5410184,166.0
0.30902582,-10.163041,0.46767473,186.0
2.8287497,-11.344804,2.003446,78.0
2.1439784,-11.023743,1.8642092,106.0
3.1506138,-11.459437,2.664417,58.0
2.4210508,-11.150982,2.4908104,109.0
1.4344453,-10.645777,1.7045523,196.0
1.0011823,-10.756533,-0.47516638,55.0
1.5314963,-10.712004,-0.040727753,19.0
1.672776,-10.753344,2.2932792,111.0
1.1559187,-10.759904,-0.11301158,139.0
1.0670769,-10.469277,2.1216624,123.0
2.3023236,-11.170214,1.2530822,181.0
0.70396256,-10.584233,-0.17311747,90.0
0.40578666,-10.147099,1.9492335,165.0
0.31969965,-10.353079,-0.2203188,78.0
-0.13424152,-9.869124,1.8027699,119.0
1.3859295,-10.68813,1.0734113,157.0
0.96832657,-10.3313265,0.9573161,159.0
1.5544059,-10.763139,1.4488022,134.0
1.1395085,-10.55298,1.3571074,139.0
0.5665525,-10.251224,0.8951153,205.0
0.19989552,-10.104847,0.8012243,97.0
0.7202588,-10.358159,1.2659307,89.0
0.34956476,-10.206452,1.1706129,96.0
2.3206947,-11.152537,0.4689472,207.0
2.5064812,-11.254448,0.87110204,193.0
2.0385923,-10.98013,0.7824028,163.0
1.4129757,-10.685635,0.32574242,123.0
1.0106417,-10.499895,0.24818784,165.0
1.587817,-10.791449,0.6999444,217.0
1.1676295,-10.554432,0.61184263,143.0
0.5960957,-10.4301405,0.19397695,90.0
0.23164867,-10.031926,2.4626899,170.0
0.23286575,-10.31966,0.12006037,123.0
-0.3041604,-9.781564,2.294469,53.0
0.74891925,-10.410307,0.54323334,176.0
0.37405238,-10.1948185,0.4696968,191.0
2.9176872,-11.395491,2.0158064,95.0
2.219887,-12.768292,-0.40689915,52.0
2.222443,-11.056472,1.872209,104.0
2.5601761,-11.369952,0.07597666,68.0
3.2374504,-11.491954,2.676818,152.0
2.424301,-12.865578,0.028767286,111.0
2.501216,-11.181304,2.5011816,114.0
1.50578,-10.667824,1.7096647,197.0
1.0702995,-10.765946,-0.47566563,80.0
1.7466351,-10.78122,2.301645,113.0
1.2261705,-10.77628,-0.1129565,57.0
