x,y,z,intensity
-3.5046544,3.1339037,1.8310509,174.0
-3.5125778,3.477091,1.8908714,83.0
-4.307709,3.854446,1.6071976,1.0
-3.5139349,2.997527,1.5292102,121.0
-3.537199,3.3374734,1.5783359,206.0
-3.636834,3.9215367,1.697215,16.0
-3.549452,3.1338582,1.8443384,174.0
-3.5263927,3.4471042,1.8865128,74.0
-4.354982,3.8476038,1.615942,1.0
-3.5283368,2.9717476,1.5272852,110.0
-3.5497985,3.307384,1.5745567,212.0
-3.593396,3.8267467,1.6651661,1.0
-3.9051967,3.653094,1.1490285,1.0
-3.5268824,3.0750315,1.8221925,74.0
-3.5239458,3.4014852,1.8734365,40.0
-3.5322797,3.8986642,1.9660398,91.0
-4.3238125,3.7722986,1.5951741,1.0
-3.5220883,2.9290395,1.5163765,109.0
-3.5398953,3.2566109,1.5606998,215.0
-3.6094704,3.795851,1.6614683,47.0
-3.8866208,3.5899014,1.1364965,90.0
-3.5192688,3.0298858,1.8081669,181.0
-3.510318,3.3457038,1.8545485,47.0
-3.5211725,3.8379655,1.9461232,149.0
-4.3386564,3.737554,1.591895,1.0
-3.5154436,2.886528,1.5054678,114.0
-3.5434918,3.2189171,1.5531415,215.0
-3.5948222,3.7335002,1.6435949,36.0
-3.8386443,3.1640985,1.0952581,1.0
-3.8674064,3.527088,1.1239647,72.0
-3.536815,3.0065162,1.8074287,201.0
-3.4177399,3.2158272,1.7935258,143.0
-3.5260527,3.7952993,1.9354537,103.0
-4.356175,3.705255,1.5897089,1.0
-3.520219,2.8537066,1.4996926,105.0
-3.5523856,3.1864014,1.5481026,216.0
-3.5728664,3.6646996,1.62264,41.0
-3.89184,3.1668637,1.1050017,1.0
-3.8750315,3.489595,1.1196433,71.0
-3.533818,2.9755247,1.7985704,183.0
-3.462723,3.2277668,1.809508,207.0
-3.5207853,3.7541902,1.9226501,101.0
-4.3706355,3.6822171,1.5886159,1.0
-3.5143566,2.8217556,1.4913505,105.0
-3.5263662,3.1328874,1.5298367,207.0
-3.4292967,3.4857306,1.5486814,92.0
-3.8869143,3.132659,1.0992441,1.0
-3.9103105,3.4882681,1.1252611,30.0
-3.522318,2.928441,1.7830683,82.0
-3.5225368,3.2427142,1.8305753,187.0
-3.510697,3.6968868,1.9041562,108.0
-4.410003,3.6681585,1.5946276,1.0
-3.5215883,2.791429,1.4868587,90.0
-3.5374515,3.103121,1.5260575,207.0
-3.7004101,3.8833995,1.4027236,4.0
-3.5252955,3.5379426,1.582579,174.0
-3.900396,3.1033428,1.0974725,1.0
-3.5045986,2.8769286,1.7646134,184.0
-3.5208654,3.2003696,1.818952,189.0
-3.5156412,3.6559656,1.894198,91.0
-4.4642773,3.665907,1.6061046,1.0
-3.516601,2.751839,1.4772334,45.0
-3.5425847,3.0683436,1.5197589,214.0
-3.7045367,3.8392966,1.3949584,1.0
-3.8767343,3.0452187,1.0850717,1.0
-3.5124605,2.846705,1.759446,53.0
-3.525709,3.1644278,1.8109609,185.0
-3.5280674,3.6231325,1.8885075,85.0
-4.482726,3.634166,1.604465,1.0
-3.5445464,3.0311449,1.5122006,216.0
-3.708256,3.7952957,1.3871931,8.0
-3.5230577,3.4483051,1.5616242,80.0
-3.662751,3.9622283,1.6601985,1.0
-3.849405,2.9851382,1.071785,1.0
-3.495319,2.7968662,1.7417294,136.0
-3.5246835,3.1235843,1.800064,177.0
-3.5428557,3.5929394,1.8842397,91.0
-4.475346,3.5819914,1.5935346,1.0
-3.552415,2.7085733,1.4778751,41.0
-3.5447361,2.9928122,1.5040123,217.0
-3.51169,3.3945014,1.5468324,118.0
-3.6005602,3.8454816,1.620032,1.0
-3.8494415,2.9467447,1.0664703,1.0
-3.5084314,2.7714128,1.7395148,48.0
-3.5246818,3.0841126,1.7898935,177.0
-3.5401647,3.545578,1.8707248,40.0
-3.512246,3.9028907,1.9140639,84.0
-4.4629474,3.526492,1.5809646,1.0
-3.5845501,2.6975212,1.4842919,36.0
-3.548943,2.9582627,1.4977138,214.0
-3.5163677,3.356674,1.5394366,162.0
-3.6128836,3.810276,1.6146365,1.0
-3.8631973,2.9189923,1.0651416,1.0
-3.897097,3.7078311,1.1161933,34.0
-3.496476,2.7354922,1.7269655,53.0
-3.5209398,3.0515237,1.7804496,176.0
-3.4968805,3.4698553,1.8387161,28.0
-3.5155346,3.869585,1.9057088,69.0
-4.484074,3.5089626,1.582604,1.0
-3.60027,2.6828494,1.4855753,33.0
-3.5263822,2.9111319,1.4819673,210.0
-3.5265949,3.3348603,1.5369712,86.0
-3.5979488,3.7586217,1.5996491,46.0
-3.898841,2.917021,1.0713421,1.0
-3.8959076,3.2295408,1.0855045,1.0
-3.9159548,3.6907613,1.1166116,44.0
-3.5254052,2.7225044,1.732871,128.0
-3.527349,3.0183816,1.7739115,162.0
-3.4167347,3.3488083,1.7846569,46.0
-3.529666,3.8363426,1.9001387,83.0
-3.487708,3.2664225,2.0656695,110.0
-4.5442014,3.5099854,1.5962672,1.0
-3.5925586,2.6423295,1.4753083,1.0
-3.531409,2.8780658,1.4762986,176.0
-3.5014086,3.2699761,1.5166327,115.0
-3.5818136,3.6946855,1.5816641,19.0
-3.8840427,2.8682747,1.0620414,1.0
-3.9191349,3.207484,1.0863688,1.0
-3.533541,2.6935794,1.728442,53.0
-3.5164642,2.970774,1.7586558,107.0
-3.5563905,3.441171,1.8472518,219.0
-3.5358822,3.7948153,1.8903911,61.0
-3.4582393,3.1986666,2.0358691,171.0
-4.610653,3.5150342,1.6121163,1.0
-3.576791,2.5964842,1.4618328,1.0
-3.503631,3.2312205,1.5086205,82.0
-3.4132519,3.4752812,1.4953363,18.0
-3.8719492,2.8221147,1.0536264,1.0
-3.907417,3.156896,1.077294,1.0
-3.9100041,3.593815,1.1015528,1.0
-3.5429432,2.6657708,1.7247509,91.0
-3.516527,2.9330225,1.7492118,193.0
-3.541309,3.3840415,1.8280466,206.0
-3.5750322,3.7889483,1.8987463,85.0
-3.483697,3.1817896,2.0390909,91.0
-3.6893613,2.7813566,1.2776442,1.0
-3.5775847,2.562999,1.455416,1.0
-3.4976838,2.7776618,1.4466951,89.0
-3.5055058,3.1925669,1.5006083,137.0
-3.5314891,3.5515757,1.5385002,127.0
-3.8641944,2.779617,1.0465403,1.0
-3.8967414,3.107807,1.0686513,1.0
-3.9499464,3.5848835,1.1065725,1.0
-3.5371623,2.6269372,1.713678,69.0
-3.510522,2.8906243,1.7368621,145.0
-3.5297458,3.3310707,1.8109752,204.0
-3.5768392,3.7432804,1.8869098,62.0
-3.4626782,3.1232328,2.0149286,164.0
-3.7021186,2.754696,1.2760046,1.0
-3.6324134,2.567628,1.4714582,51.0
-3.5031588,2.746207,1.4416562,123.0
-3.7247155,3.8794048,1.3566916,107.0
-3.5155547,3.161615,1.496294,51.0
-3.5308125,3.5063665,1.5283087,60.0
-4.713208,3.511992,0.99022925,1.0
-3.9406056,2.7968013,1.0629271,84.0
-3.5525072,2.6124282,1.7151544,99.0
-3.5111556,2.863392,1.7303239,95.0
-3.5262125,3.2966094,1.8010169,202.0
-3.581476,3.7128382,1.8799473,114.0
-3.4677644,3.0983846,2.0092907,89.0
-3.7321513,2.7496974,1.2820164,1.0
-3.6086636,2.5256653,1.4566993,43.0
-3.7147667,3.8325047,1.3461723,160.0
-3.5047438,3.1223423,1.4852003,161.0
-3.5120742,3.454754,1.5127218,88.0
-4.6995053,3.4676206,0.9837057,1.0
-3.939337,2.7681694,1.0589411,116.0
-3.9091864,3.047875,1.0626013,1.0
-3.5371544,2.5672743,1.6996523,71.0
-3.494369,2.813073,1.7128888,193.0
-3.527553,3.2567186,1.7910587,199.0
-3.5173106,3.6000562,1.833298,48.0
-3.451334,3.0452023,1.9883499,96.0
-3.3607507,3.2883449,1.989523,46.0
-3.7165737,2.7025776,1.2705394,9.0
-3.5214248,3.097759,1.4839675,88.0
-3.513265,3.4125926,1.5037292,144.0
-4.706829,3.427636,0.98061556,1.0
-3.9437926,2.734527,1.055398,109.0
-3.9066627,3.0064902,1.0565515,1.0
-3.5380535,2.534246,1.6922704,98.0
-3.525759,3.2144349,1.7796777,203.0
-3.5175357,3.5551372,1.8214617,157.0
-3.453772,3.0090997,1.978685,133.0
-3.4734197,3.3569024,2.0449245,158.0
-3.717801,2.668025,1.2650741,9.0
-3.6181312,2.4652884,1.4477156,88.0
-3.6390963,2.7532396,1.4788179,1.0
-3.513424,3.0519843,1.4722575,110.0
-3.5305228,3.3864713,1.5019307,77.0
-4.7202525,3.3922732,0.9788988,1.0
-3.9350662,2.6921835,1.0483118,64.0
-3.913075,2.9723837,1.0530944,1.0
-3.5447693,2.5055714,1.6878412,70.0
-3.4885387,2.7365499,1.6925479,151.0
-3.5235736,3.172303,1.7682968,204.0
-3.5358388,3.5289762,1.8193729,165.0
-3.4572866,2.974275,1.9698254,59.0
-3.4692988,3.3108122,2.029887,52.0
-3.7155914,2.6313546,1.2585158,8.0
-4.556452,3.5769312,1.5646093,1.0
-3.8027642,3.7782452,1.3521833,9.0
-3.519484,3.0187573,1.4667106,77.0
-3.531034,3.3444536,1.4929383,121.0
-3.6308372,3.9212265,1.5875952,1.0
-4.7285843,3.353475,0.97615206,1.0
-3.9389343,2.6587322,1.0447687,131.0
-3.8335488,2.873534,1.0258698,1.0
-3.5604422,2.4832494,1.6878412,76.0
-3.5276852,2.7317908,1.7034448,62.0
-3.5308151,3.1389778,1.7618952,194.0
-3.5366626,3.4855459,1.8082328,195.0
-3.4464953,2.9277365,1.9529117,172.0
-3.4540863,3.2547843,2.008518,122.0
-3.733633,2.609052,1.2590624,9.0
-3.66466,2.4300234,1.4541326,77.0
-3.8264284,3.7542775,1.3521833,11.0
-3.5325453,3.303873,1.4845454,80.0
-3.6659176,3.9094641,1.5922439,1.0
-4.730142,3.3102105,0.9720319,1.0
-3.944166,2.6264126,1.0416684,48.0
-3.9172542,2.8984482,1.0440196,144.0
-3.9231036,3.6533587,1.0639962,75.0
-3.5759745,2.4608297,1.6878412,27.0
-3.5285518,2.69705,1.6954538,117.0
-3.5363674,3.1044602,1.7547821,181.0
-3.5437722,3.4488113,1.800574,135.0
-3.4591908,2.9013436,1.9496901,147.0
-3.454379,3.214163,1.9966462,81.0
-3.5230508,3.9135556,1.8610835,135.0
-3.7610736,2.5931363,1.2628881,8.0
-3.6766756,2.4048908,1.4528491,60.0
-3.8818073,3.7612712,1.3637046,1.0
-3.5211208,3.2517025,1.4707569,78.0
-3.649395,3.843489,1.5742306,1.0
-4.7459717,3.2770836,0.97100186,1.0
-3.983476,2.6164718,1.0478688,106.0
-3.9322438,2.871462,1.0431552,93.0
-3.9244232,3.6086617,1.0579754,99.0
-3.524347,2.4013398,1.6575752,18.0
-3.5323386,2.6736038,1.691095,86.0
-3.5353835,3.0743363,1.7469578,180.0
-3.53713,3.4098575,1.7887375,94.0
-3.4657578,2.879193,1.9456631,164.0
-3.4452739,3.1753378,1.9824001,119.0
-3.5350995,3.8899722,1.8576945,86.0
-3.7429688,2.5549119,1.2525041,1.0
-3.6672342,2.3742514,1.4445072,74.0
-4.0456314,3.8842728,1.4163013,1.0
-3.5153697,3.215666,1.4617643,68.0
-3.6368873,3.7945898,1.5608659,1.0
-4.7760363,3.2646377,0.97409195,1.0
-4.00396,2.6029513,1.0500834,103.0
-3.9173336,2.8321862,1.0353768,115.0
-3.9154031,3.5662801,1.0507504,80.0
-3.5386536,2.6435025,1.6860099,106.0
-3.5233138,3.025409,1.731309,138.0
-3.5327854,3.3628974,1.7755086,111.0
-3.4667315,2.8435059,1.9359982,191.0
-3.4448617,3.1349955,1.9705282,67.0
-3.5377183,3.8442304,1.8461723,168.0
-3.7525454,2.5270739,1.250318,1.0
-3.7570467,2.804031,1.2596055,1.0
-3.7012947,2.363307,1.4522074,71.0
-4.120367,3.9069192,1.4343344,1.0
-3.4964988,2.8595345,1.4278823,1.0
-3.514348,3.17424,1.4527719,58.0
-3.6325562,3.7429338,1.5486633,1.0
-4.7669806,3.214839,0.9679117,9.0
-4.0301137,2.5840168,1.0527407,84.0
-3.925542,2.800672,1.032784,95.0
-3.9151309,3.1906517,1.0459195,1.0
-3.9203124,3.5258188,1.0459336,93.0
-3.5760002,2.371141,1.66791,51.0
-3.5402462,2.6100893,1.6787453,108.0
-3.5322359,2.994794,1.7263299,186.0
-3.5334344,3.3212867,1.7650647,109.0
-3.4645386,2.8056295,1.9247224,199.0
-3.399173,3.0540748,1.9325386,59.0
-3.5862784,3.847986,1.8590502,117.0
-3.623696,2.4082825,1.2011309,1.0
-3.7776852,2.7826698,1.2606701,1.0
-3.746615,2.3590412,1.4643996,68.0
-3.6680007,2.5717387,1.4511042,1.0
-4.1208863,3.8583694,1.4258187,1.0
-3.535197,2.854149,1.4365108,1.0
-3.5058527,3.126574,1.440782,33.0
-3.4674606,3.5296829,1.4673128,1.0
-4.7870855,3.184824,0.9679117,19.0
-4.0677567,2.5721037,1.0584983,100.0
-3.915998,2.7567277,1.0254377,119.0
-3.918285,3.1525712,1.0413182,1.0
-3.9248686,3.4854374,1.041117,90.0
-3.6095526,2.3607466,1.6767683,110.0
-3.561081,2.5911038,1.6809247,90.0
-3.52365,2.949864,1.712815,208.0
-3.525488,3.2721138,1.7504433,89.0
-3.4648774,2.7701669,1.9150574,188.0
-3.399136,3.0155063,1.9214584,155.0
-3.5883393,3.8021986,1.8475279,78.0
-3.3842247,3.4536746,1.9854218,145.0
-3.7565687,2.4619164,1.2410271,130.0
-3.782659,2.7497563,1.2564117,1.0
-3.7662048,2.3384297,1.4663247,53.0
-3.5035717,2.422546,1.3780403,1.0
-4.1932244,3.877267,1.44285,1.0
-3.5240018,3.1032174,1.4401824,4.0
-3.3011913,3.3200133,1.3865434,1.0
-4.8003974,3.1503823,0.96653837,10.0
-4.131957,2.5762184,1.0713421,86.0
-3.9412367,2.7376726,1.0275984,83.0
-3.9241881,3.116998,1.0375535,11.0
-3.9349453,3.4503284,1.0379058,94.0
-3.5531538,2.5511765,1.6693013,106.0
-3.5348845,2.9217439,1.7092586,220.0
-3.5308323,3.2358992,1.7427845,116.0
-3.46635,2.7359385,1.9061979,182.0
-3.4235206,2.9989552,1.9246241,150.0
-3.5625553,3.7280781,1.8217723,128.0
-3.498526,3.5249493,2.0401995,175.0
-3.7768242,2.441376,1.2426667,79.0
-3.7733147,2.7067156,1.2473627,1.0
-3.772723,2.3098116,1.4631162,18.0
-3.6500127,2.490972,1.4309486,147.0
-4.248858,3.8796782,1.4538703,1.0
-3.5219138,3.0621417,1.4311899,1.0
-3.6410928,3.6133823,1.5225149,60.0
-4.820097,3.1201584,0.96653837,19.0
-4.8893924,3.5157597,0.9838995,19.0
-4.151394,2.552235,1.0722278,97.0
-3.9390874,2.699526,1.0224128,60.0
-3.9359756,3.0862775,1.035462,67.0
-3.9299738,3.4023485,1.0306808,92.0
-3.6420789,2.3171833,1.6782447,9.0
-3.5554743,2.5190425,1.6627631,110.0
-3.5255566,2.877144,1.6957437,208.0
-3.5289373,3.1934273,1.7316444,80.0
-3.4689796,2.7029202,1.8981438,191.0
-3.5819676,3.7015793,1.819739,88.0
-3.5337384,3.515859,2.0479147,173.0
-3.8067315,2.4268396,1.2475854,88.0
-3.7918155,2.6840746,1.247895,1.0
-3.8229375,2.3074334,1.4772334,17.0
-3.670301,2.4711914,1.4328382,88.0
-4.294652,3.8724306,1.461384,1.0
-3.5396419,3.0387034,1.4305904,1.0
-3.7298884,3.8076272,1.2919108,135.0
-3.695283,3.6211164,1.5358796,53.0
-4.8462644,3.094029,0.9679117,10.0
-4.930639,3.498729,0.98789936,1.0
-4.199117,2.5451772,1.0806427,95.0
-3.9608102,2.678025,1.0237092,80.0
-3.9428778,3.05196,1.0321157,37.0
-3.9364302,3.3647997,1.0266669,93.0
-3.6750443,2.313756,1.6885794,1.0
-3.5703464,2.504414,1.664216,53.0
-3.5128138,2.8394654,1.6829402,202.0
-3.510569,3.1465845,1.7149342,143.0
-3.4627697,2.672092,1.8876734,192.0
-3.4354458,2.9431126,1.9127524,166.0
-3.536003,3.6202996,1.7872056,40.0
-3.5093641,3.459181,2.0239978,104.0
-3.8344424,2.419066,1.2530506,86.0
-3.7760916,2.6461368,1.2383138,1.0
-3.663009,2.4411485,1.4252799,103.0
-4.312853,3.8521495,1.461384,1.0
-3.74642,3.7886336,1.2914279,134.0
-3.4917645,3.3912532,1.4429077,29.0
-3.5465996,3.8128543,1.4911335,1.0
-4.8607907,3.0711572,0.9679117,20.0
-4.8778496,3.4264762,0.9735664,1.0
-4.2311854,2.537315,1.0859574,106.0
-3.9798589,2.6637025,1.0254377,95.0
-3.9323032,3.01441,1.0254229,69.0
-3.9328682,3.3296776,1.0214487,91.0
-3.7005959,2.2974308,1.6937468,1.0
-3.5600483,2.4637823,1.6518662,42.0
-3.5217874,2.810382,1.6786724,181.0
-3.527473,3.1219678,1.7135417,81.0
-3.478029,2.6491797,1.886868,178.0
-3.4524732,2.9202766,1.911961,126.0
-3.4391096,3.4780867,1.7262056,177.0
-3.5084615,3.4152763,2.010882,84.0
-3.5455427,3.8232934,2.0902832,17.0
-3.8528423,2.3969438,1.2541437,38.0
-3.8116136,2.6355996,1.2447013,1.0
-3.903728,2.297679,1.4990509,41.0
-3.6782746,2.418085,1.4252799,106.0
-4.3804007,3.8635502,1.4764117,1.0
-3.4852695,3.3428695,1.4312862,4.0
-3.6596014,3.885845,1.5293815,97.0
-4.8699355,3.0343397,0.96585166,10.0
-4.9041333,3.399147,0.9745664,1.0
-4.2706065,2.5244777,1.0921578,83.0
-4.0078917,2.6462238,1.0284626,84.0
-3.9276989,2.9720383,1.0191485,37.0
-3.9342332,3.2884884,1.0162307,86.0
-3.6291065,2.2221289,1.6538843,148.0
-3.5969334,2.4561772,1.6620367,136.0
-3.513265,3.0699866,1.6968315,153.0
-3.4755168,2.613062,1.8763976,164.0
-3.4468775,2.8784041,1.8985063,132.0
-3.5090237,3.504078,1.7506056,202.0
-3.4715786,3.8382835,1.773029,44.0
-3.4523888,3.3193188,1.9661338,106.0
-3.5000587,3.7264218,2.048744,153.0
-3.6933951,2.394926,1.4252799,103.0
-4.3594627,3.7963731,1.4608831,1.0
-4.5556636,3.4073412,1.8075365,1.0
-3.5048094,3.3195949,1.4307051,1.0
-3.6430461,3.8195622,1.5119449,64.0
-4.895634,3.007783,0.967225,20.0
-4.89941,3.350367,0.9692332,1.0
-4.045653,2.6349332,1.0340804,89.0
-3.9321487,2.9368267,1.0153838,66.0
-3.929212,3.2424018,1.009407,67.0
-3.777049,2.2793388,1.7158926,197.0
-3.615376,2.4356253,1.6634896,109.0
-3.4827871,2.7088654,1.6431072,154.0
-3.5141,3.031849,1.6877801,152.0
-3.496292,2.5944252,1.8788139,133.0
-3.4493642,2.8437672,1.8898003,119.0
-3.5094478,3.4609098,1.7397611,201.0
-3.5781615,3.907218,1.8159151,56.0
-3.3965952,3.2254684,1.9221572,35.0
-3.5234034,3.704357,2.048744,71.0
-4.088989,2.4718742,1.3224591,1.0
-3.9998863,2.286691,1.5253601,40.0
-3.7386637,2.391245,1.4372472,92.0
-4.377375,3.763837,1.4588795,1.0
-3.8339112,3.7335312,1.2972237,8.0
-3.571902,3.3404524,1.4498806,1.0
-3.6536927,3.7827408,1.5063202,104.0
-4.9195023,2.9800084,0.9682551,10.0
-4.926888,3.3239512,0.9705665,1.0
-4.0719595,2.615836,1.0366732,122.0
-3.9126258,2.8843684,1.0053447,37.0
-3.9328523,3.2039707,1.0049917,57.0
-3.815323,2.269707,1.7269655,205.0
-3.6306078,2.4128613,1.6634896,51.0
-3.5294964,2.7095582,1.6573333,88.0
-3.5188613,2.997489,1.6808176,132.0
-3.5021503,2.5648832,1.873176,142.0
-3.4643254,2.8197062,1.8882174,100.0
-3.5189428,3.4270263,1.733661,212.0
-3.5783486,3.8582625,1.8033792,135.0
-3.410037,3.1977818,1.9182997,152.0
-3.5184617,3.6526895,2.0321283,152.0
-4.094498,2.4402664,1.3191799,1.0
-3.7004743,2.4559472,1.1914719,1.0
-3.7568161,2.3697472,1.438507,104.0
-4.3479586,3.6909595,1.4408463,1.0
-3.8418496,3.694629,1.2919108,1.0
-3.6111672,3.3347464,1.4574345,1.0
-3.5223296,3.5999484,1.4410734,31.0
-4.938129,2.9490395,0.9682551,21.0
-4.919831,3.2742596,0.9649,1.0
-4.1097016,2.6038756,1.0422909,69.0
-3.9560523,2.8780315,1.0120375,60.0
-3.9513838,3.1779625,1.0045903,45.0
-3.8857787,2.2783422,1.7528023,197.0
-3.6410358,2.3869154,1.6613102,90.0
-3.5509362,2.6906948,1.6594672,41.0
-3.52333,2.9631894,1.6738551,145.0
-3.5211742,2.5449588,1.8747869,142.0
-3.469135,2.7874708,1.8810943,121.0
-3.5131733,3.378875,1.7201055,202.0
-3.57935,3.8108416,1.7915031,121.0
-3.4273434,3.1737974,1.9167566,169.0
-3.5233135,3.6118784,2.0215547,49.0
-4.143008,2.433841,1.3301104,1.0
-3.8283994,2.507081,1.2287325,115.0
-4.0847526,2.2672584,1.5471776,42.0
-3.79574,2.3612456,1.4479548,52.0
-4.3799405,3.671062,1.4438518,1.0
-3.6490812,3.3273942,1.4644074,1.0
-3.5717857,3.6051226,1.4523228,20.0
-4.9514565,2.9149735,0.967225,20.0
-4.9255033,3.2334917,0.96190006,10.0
-4.137543,2.585294,1.045316,101.0
-3.9575074,3.1420527,1.0009778,28.0
-3.917766,2.264033,1.7609224,218.0
-3.6200807,2.3405519,1.6446016,32.0
-3.5362303,2.6449645,1.6445297,158.0
-3.5275073,2.9289522,1.6668924,147.0
-3.5341043,2.5206726,1.873176,123.0
-3.4923158,2.7702107,1.8842602,84.0
-3.5137875,3.337383,1.7099389,204.0
-3.5773058,3.760815,1.7783073,85.0
-3.4720585,3.5142736,1.978505,175.0
-4.1682324,2.4135036,1.3333895,1.0
-3.8537648,2.4892964,1.2319262,82.0
-4.411844,3.6509082,1.4468575,1.0
-3.559165,3.5472403,1.4376986,1.0
-4.9867506,2.8936338,0.9706585,21.0
-4.9490256,3.2046351,0.96256673,20.0
-4.1752625,2.5726528,1.0509337,74.0
-3.9518917,2.7999935,1.0015801,1.0
-3.9740968,3.1146953,1.000175,45.0
-3.9639847,2.26568,1.7771627,212.0
-3.648283,2.334596,1.6525927,29.0
-3.56222,2.6382213,1.6509315,83.0
-3.5153,2.8907452,1.6543598,143.0
-3.5294397,2.492452,1.8643165,116.0
-3.4923787,2.7434518,1.8771371,127.0
-3.5157173,3.3079512,1.7031611,187.0
-3.5650346,3.7124753,1.7631322,115.0
-3.4483037,3.1235929,1.9090414,163.0
-3.5029066,3.5123558,1.9868128,122.0
-4.2180495,2.4156642,1.3459595,1.0
-3.8703115,2.4742453,1.2335231,79.0
-4.1612096,2.249915,1.5670699,84.0
-3.7737463,2.7846303,1.2220526,1.0
-4.3931637,3.6004925,1.4348353,1.0
-3.5758414,3.530429,1.4376986,1.0
-4.9951944,2.867178,0.96962845,21.0
-4.9524755,3.1737897,0.96023345,10.0
-4.205633,2.5642066,1.0556872,103.0
-3.9457724,2.767943,0.9965605,1.0
-3.9810154,3.0898955,0.99816805,13.0
-3.9813893,2.242539,1.7786391,71.0
-3.6895888,2.328659,1.6649425,1.0
-3.5544999,2.5982497,1.6395506,132.0
-3.511639,2.8507776,1.6439159,163.0
-3.4892757,2.4317644,1.8345163,191.0
-3.508101,2.7203224,1.8763456,70.0
-3.5129066,3.2641218,1.6916388,203.0
-3.462339,3.0969684,1.9059553,154.0
-3.4947622,3.4601839,1.9694419,68.0
-4.253297,2.400377,1.3525178,1.0
-3.9150534,2.4685156,1.2431045,82.0
-3.7833352,2.755212,1.2194642,1.0
-4.412698,3.5703719,1.4338335,1.0
-3.7761512,3.8339748,1.2461739,1.0
-4.328698,3.8076904,1.7154317,1.0
-3.5952153,3.5052009,1.4365736,1.0
-5.0268574,2.8434482,0.9723752,22.0
-4.980636,3.1479065,0.96190006,21.0
-6.777765,3.6152434,1.7099893,1.0
-4.2416954,2.549887,1.0608728,85.0
-3.9679244,2.7464151,0.99781543,1.0
-3.9801948,3.0492492,0.99294996,42.0
-4.016581,2.2291112,1.7882357,38.0
-3.6173902,2.2508712,1.6249872,1.0
-3.99171,3.4939826,1.0019184,53.0
-3.5737967,2.578038,1.6409732,80.0
-3.5294816,2.8286574,1.6439159,164.0
-3.5059993,2.4108229,1.8353217,190.0
-3.5236704,2.6971037,1.8755542,131.0
-3.5180357,3.2280567,1.6841832,214.0
-3.3910627,3.441851,1.652948,165.0
-3.4733992,3.0678604,1.9013262,159.0
-3.4478571,3.37055,1.9301685,117.0
-4.307056,2.3949497,1.3650879,1.0
-4.2580853,2.2332287,1.5933793,84.0
-3.9644573,2.3391929,1.492045,1.0
-4.4109073,3.5231543,1.4258187,1.0
-3.7385716,3.747948,1.2253376,1.0
-4.3423924,3.7716687,1.7113642,1.0
-3.852672,3.7111266,1.5327563,1.0
-5.049797,2.814667,0.9734053,22.0
-4.990297,3.1102571,0.95990014,21.0
-6.7553926,3.5491216,1.6984742,1.0
-4.281094,2.5372198,1.0669227,101.0
-3.986722,2.722526,0.9982337,1.0
-4.010181,3.0324974,0.9957597,26.0
-4.076283,2.2285972,1.8089051,78.0
-3.7328122,2.2909503,1.6714807,156.0
-4.004644,3.4611661,0.9996181,55.0
-3.5608964,2.5350697,1.6274585,133.0
-3.5252082,2.7888768,1.6334721,57.0
-3.5119586,2.3826237,1.8304892,190.0
-3.5303245,2.6671133,1.8700141,124.0
-3.5186517,3.188284,1.6746944,198.0
-3.5400968,3.5493257,1.7162875,164.0
-3.4730632,3.0290823,1.890525,148.0
-3.4530435,3.333318,1.9211054,46.0
-4.354149,2.3852713,1.3754718,1.0
-3.8563275,2.2421188,1.4448055,1.0
-4.4632792,3.5194573,1.4358371,1.0
-3.667847,2.479817,1.3989152,1.0
-3.8198988,3.7820985,1.2447847,30.0
-4.34852,3.7294223,1.7043914,1.0
-3.9701335,3.7771552,1.5710044,1.0
-5.070843,2.7847676,0.97409195,23.0
-5.011417,3.0798793,0.96023345,21.0
-6.7758245,3.505715,1.6980313,1.0
-4.3154545,2.521182,1.0716763,96.0
-4.0200152,2.7082825,1.0024166,1.0
-4.035417,3.011954,0.9973653,48.0
-4.147618,2.2335396,1.8347418,94.0
-3.7900558,2.2936978,1.691095,138.0
-4.0023437,3.4156408,0.9934842,67.0
-3.5920997,2.5233197,1.6345714,79.0
-3.510268,2.7411375,1.6181544,58.0
-3.5238073,2.3584886,1.8288784,193.0
-3.533806,2.6349368,1.862891,124.0
-3.5020158,3.1336477,1.6570722,210.0
-3.534266,3.4990027,1.7024319,172.0
-3.4695709,2.9880342,1.8781806,121.0
-3.4405434,3.2794695,1.902224,146.0
-4.3741403,2.3605866,1.3771114,1.0
-4.3585715,2.2161603,1.6209719,71.0
-4.026392,2.3082163,1.5046422,120.0
-3.7933176,2.6547937,1.2060045,1.0
-4.517301,3.516435,1.4463565,1.0
-3.664303,2.4441407,1.3915193,1.0
-3.6458282,2.6975944,1.3898245,1.0
-4.370152,3.8571737,1.4160404,1.0
-4.3704014,3.7007947,1.7038102,1.0
-4.0244536,3.7811613,1.5833788,1.0
-5.109075,2.7640293,0.9782121,49.0
-5.034035,3.0503867,0.96090007,20.0
-4.3649755,2.513644,1.0803189,101.0
-4.0385857,2.6840465,1.0028349,1.0
-4.0275245,2.9666765,0.99054164,45.0
-4.179475,2.2252343,1.8443384,74.0
-3.8167655,2.285458,1.6983596,225.0
-4.0078673,3.3879128,0.99080056,56.0
-3.5731597,2.485162,1.6203454,134.0
-3.5305357,2.730334,1.6216357,80.0
-3.5333512,2.3408532,1.8280729,190.0
-3.5226223,2.6006904,1.8502278,119.0
-3.645374,3.2301328,1.71875,254.0
-3.5413177,3.4730165,1.6978135,203.0
-3.4906588,2.9776075,1.8820382,117.0
-3.4640057,3.2708828,1.9067554,80.0
-4.3944073,2.2082496,1.6305972,58.0
-4.094874,2.3222404,1.5266874,84.0
-3.8185277,2.6456347,1.210146,1.0
-4.5338216,3.4951088,1.4463565,28.0
-3.6837432,2.432051,1.394601,48.0
-3.6907156,2.7042093,1.402414,1.0
-4.38828,3.8365371,1.4160404,1.0
-3.8431516,3.7222025,1.2387654,1.0
-4.389263,3.6813834,1.7043914,1.0
-3.609594,3.3565133,1.409575,1.0
-5.1307464,2.7445393,0.97992885,45.0
-5.044978,3.024591,0.96023345,21.0
-4.8237023,2.435497,1.192694,1.0
-4.0872345,2.688481,1.0120375,1.0
-4.0509295,2.9546301,0.99294996,23.0
-4.23957,2.2229023,1.8650079,78.0
-3.8710585,2.2852957,1.7165211,231.0
-4.0305867,3.3639157,0.99118394,69.0
-3.59025,2.4637127,1.6210567,80.0
-3.5535614,2.7126749,1.6244208,110.0
-3.5433776,2.3156242,1.8256568,195.0
-3.531496,2.5730634,1.8462706,121.0
-3.6556485,3.1985328,1.7140055,254.0
-3.5387537,3.4269547,1.6859373,206.0
-3.5092986,2.9556165,1.8820382,107.0
-3.469649,3.2350976,1.8984476,119.0
-4.449028,2.200584,1.6459978,85.0
-4.1193023,2.3020647,1.5304666,92.0
-3.8078823,2.6031754,1.2013453,1.0
-4.557229,3.467731,1.4468575,8.0
-3.6877575,2.4016407,1.3902867,34.0
-3.67681,2.658469,1.390424,1.0
-4.4417696,3.8341508,1.4257003,1.0
-3.8818734,3.7128336,1.2438587,1.0
-4.441873,3.6780386,1.7160128,1.0
-4.0108604,3.685829,1.5614424,1.0
-5.1670995,2.7222834,0.9837057,12.0
-5.0774364,3.0009067,0.96290004,21.0
-4.83366,2.4025567,1.1913652,1.0
-4.1007557,2.660632,1.0112009,21.0
-4.090026,2.944083,0.99816805,35.0
-4.304765,2.2224393,1.8878919,73.0
-4.08131,2.376155,1.8051492,254.0
-4.0303674,3.3211312,0.9858167,75.0
-3.567551,2.6880236,1.6230282,71.0
-3.5702047,2.3011901,1.8321,194.0
-3.5282722,2.5367942,1.8359817,120.0
-3.5084786,3.0322757,1.6347054,214.0
-3.5384698,3.3836844,1.6753808,186.0
-3.5178318,2.9252944,1.8766376,63.0
-3.483122,3.2069325,1.8946713,75.0
-4.6282988,2.394322,1.4454268,1.0
-4.158568,2.2899785,1.5399144,92.0
-4.554222,3.4203362,1.4388427,5.0
-3.696352,2.374339,1.3878214,42.0
-3.673314,2.6208172,1.3826306,1.0
-4.3413305,3.7008476,1.3851287,1.0
-3.9079437,3.6910527,1.2447847,1.0
-4.475296,3.6584992,1.7200804,1.0
-4.1614246,3.7771106,1.6120648,1.0
-5.198118,2.6969745,0.98645246,49.0
-5.1165977,2.980928,0.96689993,21.0
-4.892539,2.393401,1.2024375,1.0
-5.247651,3.5034394,0.9872099,33.0
-4.1322575,2.6442397,1.0149655,16.0
-4.0893307,2.9046338,0.99335134,69.0
-3.9816926,2.2841241,1.7535706,219.0
-4.0404625,3.2871127,0.9831331,73.0
-3.6193664,2.417372,1.6203454,83.0
-3.5588806,2.6464188,1.6111919,81.0
-3.5907915,2.2826114,1.8353217,182.0
-3.5202534,2.4974582,1.8233185,116.0
-3.6222823,3.090371,1.6794388,254.0
-3.5200076,3.323628,1.656247,190.0
-3.4416745,2.826277,1.8257173,40.0
-3.4786348,3.1624544,1.8810767,97.0
-4.634663,2.3608615,1.4426942,1.0
-4.561913,2.1850746,1.6780822,63.0
-4.196179,2.2765768,1.5487325,88.0
-3.7854488,2.5189774,1.1837442,1.0
-3.7751062,2.7938347,1.1803675,1.0
-3.7498848,2.3753262,1.4026132,60.0
-4.3362007,3.6498525,1.3759519,1.0
-4.5071554,3.637488,1.7235668,1.0
-4.259154,3.817768,1.6413134,1.0
-5.2430844,2.6785054,0.99194604,29.0
-5.157414,2.9615629,0.9712331,23.0
-4.926845,2.3718472,1.2073092,129.0
-5.231556,3.4455452,0.9798607,15.0
-4.1421566,2.6140761,1.0132923,1.0
-4.1106997,2.8811448,0.99415416,39.0
-4.428964,2.216014,1.9307071,1.0
-3.979785,2.2498193,1.746306,194.0
-4.0902047,3.2849016,0.9904172,110.0
-3.6485748,2.403773,1.6267471,101.0
-3.5739317,2.6228895,1.6104956,82.0
-3.634621,2.2783387,1.8506244,172.0
-3.5313766,2.4721093,1.8209442,67.0
-3.6242964,3.0530775,1.6713054,254.0
-3.5270662,3.2885122,1.6496491,202.0
-3.4550488,2.8011303,1.8234028,117.0
-3.4847093,3.1281044,1.8735242,90.0
-4.647682,2.330839,1.4421476,1.0
-4.60817,2.1715806,1.6902744,84.0
-4.2354546,2.2636943,1.5581803,84.0
-3.7979617,2.4930375,1.1827087,1.0
-3.7941444,2.7712088,1.1808684,8.0
-3.767972,2.3537195,1.4038458,34.0
-4.344077,3.6101847,1.3711219,1.0
-4.544931,3.6209695,1.7293775,1.0
-4.3217387,3.8254151,1.6565002,1.0
-5.2756796,2.6534228,0.9950361,57.0
-5.189624,2.9369166,0.9738997,23.0
-4.9822617,2.3598967,1.2174957,91.0
-5.226556,3.3954837,0.97474825,56.0
-4.171818,2.5962105,1.0166388,1.0
-4.114259,2.8451712,0.99054164,22.0
-4.571457,2.2508526,1.9875481,1.0
-4.006833,2.2320817,1.7521176,183.0
-4.062935,3.2215185,0.9785326,139.0
-3.6085835,2.3454077,1.6018515,137.0
-3.56764,2.5837812,1.6000518,80.0
-5.6904016,3.6169846,0.84535664,1.0
-3.6582346,2.2611878,1.855457,165.0
-3.5091813,2.4235978,1.8011578,59.0
-3.633245,3.0218663,1.666561,254.0
-3.51722,3.2380235,1.6351339,206.0
-3.5231853,2.819491,1.8504059,209.0
-3.500153,3.1024446,1.8712584,93.0
-4.644951,2.293142,1.4366825,1.0
-4.278085,2.25219,1.568888,104.0
-3.81843,2.472253,1.1842618,55.0
-3.814613,2.749593,1.1818702,9.0
-3.7729392,2.3240557,1.4001478,10.0
-4.3471117,3.5668855,1.364843,1.0
-4.5736256,3.5970526,1.7317019,1.0
-4.305351,3.762678,1.640751,1.0
-5.329391,2.6384535,1.0022464,67.0
-5.194222,2.8965209,0.9712331,48.0
-5.2344604,3.3540998,0.97219205,67.0
-4.223142,2.591283,1.0254229,10.0
-4.1449656,2.8281512,0.9937528,21.0
-4.6289043,2.251868,2.0082176,67.0
-4.0759187,2.2458048,1.7782702,50.0
-4.0873623,3.209574,0.9808329,83.0
-3.6385176,2.3404226,1.6103871,35.0
-3.576739,2.5647414,1.5986592,80.0
-5.672138,3.5681071,0.8392875,1.0
-3.6970415,2.2609835,1.8699543,165.0
-3.529631,2.4132977,1.8059065,111.0
-3.625583,2.9868596,1.6563944,254.0
-3.5046473,3.1958504,1.6219381,208.0
-3.4972491,2.7720883,1.829575,203.0
-3.4939394,3.0674977,1.8599294,32.0
-4.742197,2.170811,1.7313426,63.0
-4.3306546,2.2540908,1.5846345,95.0
-3.8675551,2.4780364,1.1961685,57.0
-3.8165298,2.7236655,1.1783638,10.0
-3.696263,2.5076659,1.3682426,1.0
-4.3729353,3.5536718,1.367741,1.0
-4.4875803,3.4958549,1.6921887,1.0
-4.3186946,3.7385638,1.6390636,1.0
-5.334674,2.609871,1.0008731,51.0
-5.1923018,2.8633876,0.9682332,43.0
-5.2184634,3.3094103,0.96612096,73.0
-4.2503896,2.5804262,1.0291877,20.0
-4.156628,2.807484,0.99335134,21.0
-4.1160893,2.234489,1.7898935,86.0
-4.080994,3.163489,0.9743155,46.0
-3.6484017,2.3145335,1.6082531,33.0
-3.5744774,2.5291371,1.5903041,80.0
-5.7820587,3.586379,0.8543158,1.0
-3.7520504,2.2620957,1.8908951,157.0
-3.4885657,2.3528016,1.7766229,189.0
-3.6135154,2.9392204,1.642161,254.0
-3.5078866,3.1585345,1.6140207,207.0
-3.4839718,2.7263203,1.8133731,99.0
-3.482476,3.0186627,1.8433138,63.0
-4.6907353,2.2518406,1.4432406,1.0
-4.7695856,2.147139,1.7364761,80.0
-4.3632736,2.2364373,1.591563,92.0
-3.8895993,2.457786,1.1982392,45.0
-3.7972677,2.673833,1.1668427,17.0
-3.6945572,2.4726388,1.3616481,1.0
-4.399732,3.529753,1.36919,1.0
-4.304282,3.6787975,1.6244392,1.0
-5.3794174,2.589879,1.0063666,69.0
-5.2914796,2.8752337,0.9838995,13.0
-5.5562124,2.512784,1.3503627,1.0
-5.267669,3.2942595,0.97155297,79.0
-4.2984815,2.572623,1.0371352,24.0
-4.1741858,2.7813118,0.99335134,20.0
-4.7444396,2.2343655,2.0466037,13.0
-4.1726713,2.2316148,1.8087815,80.0
-3.7026052,2.3161623,1.6260358,50.0
-3.581104,2.500146,1.5861266,79.0
-5.8298492,3.5653913,0.8586509,1.0
-3.8040614,2.2607489,1.9102249,147.0
-3.5718718,2.376952,1.8122382,207.0
-3.6112993,2.9000537,1.6326721,254.0
-3.5065792,3.117523,1.604124,206.0
-3.5010328,2.7043762,1.8133731,172.0
-3.5209968,3.0136676,1.8538874,159.0
-4.7413898,2.2394361,1.4547176,122.0
-4.419517,2.230534,1.6073095,87.0
-3.9312704,2.4495292,1.2065221,23.0
-3.8536246,2.6777153,1.1793656,5.0
-3.7179577,2.4546692,1.3646456,68.0
-4.429452,3.5080366,1.3716049,1.0
-3.6721425,2.7920172,1.3656247,1.0
-4.321462,3.6467083,1.6221894,1.0
-5.4276867,2.5711026,1.0125468,81.0
-5.2712603,2.821327,0.9765663,44.0
-5.211379,2.318942,1.260899,1.0
-4.8857794,2.4781444,1.1779816,1.0
-5.4600167,3.3662372,1.0041449,106.0
-4.34833,2.5653036,1.0455012,46.0
-4.1932116,2.7561128,0.9937528,21.0
-4.868208,2.254875,2.0945864,49.0
-4.229378,2.228117,1.8276695,104.0
-3.717085,2.2928526,1.6260358,50.0
-3.5798125,2.4658175,1.5784677,79.0
-5.7315927,3.4564948,0.8381315,1.0
-3.841948,2.2505739,1.9223062,129.0
-3.57296,2.3453257,1.8051151,71.0
-3.614653,2.8656816,1.6258943,254.0
-3.502069,3.0741498,1.5929075,208.0
-3.5253181,2.6878855,1.8172306,157.0
-3.4975863,2.9554389,1.8312297,215.0
-4.8025594,2.231307,1.4694738,86.0
-4.9527783,2.1544502,1.7942281,71.0
-4.462285,2.2171986,1.6180171,90.0
-3.8655963,2.650144,1.1778629,1.0
-3.7349014,2.432309,1.3652451,47.0
-4.479005,3.501554,1.3802989,1.0
-3.6819344,2.7631798,1.3627193,1.0
-4.3781023,3.647862,1.6351262,1.0
-5.4830856,2.555126,1.0201005,83.0
-5.31152,2.8001835,0.9808996,26.0
-5.7555737,2.5156455,1.3919944,1.0
-4.8820715,2.43773,1.1732281,1.0
-5.4573956,3.3175821,0.9996715,77.0
-4.389782,2.5525768,1.0517756,49.0
-4.249799,2.7554522,1.0033861,25.0
-4.880585,2.2234786,2.093848,73.0
-4.2845535,2.2231286,1.8458309,89.0
-3.5920825,2.185595,1.5641522,46.0
-3.582869,2.4347878,1.5728977,77.0
-5.782168,3.437519,0.8430446,1.0
-3.8878036,2.2445524,1.9384143,126.0
-3.5661073,2.308752,1.7940348,75.0
-3.495792,2.736825,1.5635387,64.0
-3.5426347,3.0707273,1.6028043,221.0
-3.5273426,2.6546547,1.8095155,159.0
-3.4905856,2.9119368,1.817635,216.0
-4.8603063,2.220911,1.4831369,87.0
-5.042977,2.1557658,1.8224624,28.0
-4.508462,2.205095,1.6299845,90.0
-3.8309996,2.590868,1.1618334,1.0
-3.7485096,2.4077556,1.3646456,57.0
-4.5163245,3.4851446,1.3851287,1.0
-3.6853375,2.729801,1.3574897,1.0
-4.4378824,3.650896,1.649188,1.0
-5.520558,2.530404,1.0242206,86.0
-5.3622046,2.7841327,0.98723274,51.0
-5.789211,2.4870734,1.3964232,1.0
-4.8902946,2.4035356,1.1714996,1.0
-5.432322,3.2559693,0.9910442,90.0
-4.414237,2.5297732,1.0538671,33.0
-4.240685,2.7117007,0.99696386,51.0
-4.3332086,2.2141147,1.8610866,43.0
-4.2595487,3.4748774,0.988943,1.0
-3.7874005,2.2707615,1.6445297,181.0
-3.596544,2.4111767,1.5722014,88.0
-5.7420764,3.3652854,0.83264035,124.0
-3.9464958,2.2452276,1.9609659,123.0
-3.5913463,2.2932713,1.799575,42.0
-3.478554,2.6884997,1.5479498,175.0
-3.517557,3.0101583,1.582351,211.0
-3.5394936,2.6291592,1.8072009,160.0
-3.5002675,2.882845,1.8131034,205.0
-4.926899,2.2137861,1.4995326,88.0
-5.0984015,2.1414888,1.8378631,40.0
-4.564904,2.1974795,1.645731,83.0
-3.7058797,2.4715586,1.1177524,1.0
-3.787671,2.399582,1.373638,61.0
-4.550518,3.466063,1.3889927,1.0
-3.6838174,2.693121,1.3505168,1.0
-4.4592485,3.6217248,1.6486256,1.0
-5.5831203,2.5165637,1.0331477,84.0
-5.4111423,2.7666512,0.99323255,30.0
-5.851503,2.4702218,1.4079384,53.0
-5.012337,2.4250312,1.1978599,1.0
-5.440752,3.2147808,0.98880756,78.0
-4.4419923,2.5086727,1.0567952,1.0
-4.2592926,2.686054,0.9973653,46.0
-5.059787,2.2280862,2.1595473,27.0
-4.2645035,3.4344168,0.98491776,1.0
-3.9694016,2.3450623,1.7185055,254.0
-3.6147406,2.3906145,1.5735939,55.0
-5.7442245,3.3183093,0.8294613,79.0
-4.016554,2.2514691,1.9891553,123.0
-5.7722526,3.5984316,0.8196805,1.0
-3.553,2.237131,1.7726656,141.0
-3.5494237,2.7074275,1.5723498,119.0
-3.5162854,2.9708498,1.573114,211.0
-3.5410116,2.5960274,1.7994857,161.0
-3.502564,2.8478727,1.8047956,190.0
-4.990067,2.2043693,1.5148352,90.0
-4.6231394,2.1900604,1.6621073,88.0
-3.8326125,2.5221632,1.152316,137.0
-4.0995307,2.2899704,1.4858166,1.0
-3.8139684,2.3828642,1.3778346,31.0
-4.575317,3.4397247,1.3899587,1.0
-3.6882102,2.6610198,1.3458682,1.0
-4.4669847,3.5815763,1.6430008,1.0
-5.6222734,2.4917352,1.0376111,70.0
-5.4196267,2.7281346,0.99156594,55.0
-5.866908,2.433407,1.4079384,41.0
-4.986994,2.374036,1.1879208,74.0
-5.4505877,3.1746035,0.9868904,94.0
-4.5004854,2.5043192,1.0672526,27.0
-4.3192353,2.686316,1.0078014,31.0
-5.087304,2.211566,2.1669292,118.0
-4.4904976,2.2332582,1.9192034,1.0
-4.295966,3.4266002,0.98857707,1.0
-3.8736224,2.2645507,1.6715593,198.0
-3.6228383,2.3714855,1.5722014,43.0
-5.7391424,3.2794847,0.8259932,82.0
-4.064034,2.2527685,2.0076797,126.0
-5.79924,3.5774593,0.8213556,1.0
-3.6660779,2.2849681,1.8249013,160.0
-3.5832353,2.706453,1.5818387,63.0
-3.5302463,2.9542468,1.573114,216.0
-3.5352268,2.5663877,1.7902274,167.0
-3.5001369,2.8184876,1.7964878,178.0
-5.0569215,2.2052305,1.532324,87.0
-4.6780267,2.189346,1.6784837,86.0
-3.8735747,2.5232255,1.1613325,83.0
-4.1436644,2.2888827,1.498143,25.0
-3.815445,2.3588006,1.3742375,11.0
-4.628937,3.4458077,1.4015505,1.0
-3.6804008,2.6292396,1.3383142,1.0
-4.507794,3.579668,1.6520004,1.0
-5.653837,2.4738357,1.0413879,81.0
-5.448286,2.7105236,0.99456584,66.0
-5.849392,2.394006,1.4008522,10.0
-5.467201,3.1498632,0.9872099,84.0
-4.5482974,2.5027423,1.0760368,42.0
-4.3285174,2.663865,1.0069987,52.0
-4.659778,2.2818227,1.9867641,1.0
-4.2773633,3.3677657,0.97906286,1.0
-3.9462318,2.2734993,1.6971663,216.0
-3.6439486,2.3527734,1.5749865,17.0
-5.7423606,3.233703,0.82310313,67.0
-4.126423,2.2533016,2.0318422,120.0
-3.7131283,2.282239,1.8415219,97.0
-3.5517323,2.6481164,1.5601498,171.0
-3.5240853,2.9114547,1.5618976,211.0
-3.536232,2.5334485,1.7825123,167.0
-3.514888,2.7941222,1.7949773,37.0
-5.106099,2.1884418,1.5432544,82.0
-5.3918123,2.1548135,1.9315498,1.0
-4.7433243,2.1839278,1.6973795,83.0
-3.8926008,2.500945,1.1623343,99.0
-4.189791,2.279946,1.5098531,50.0
-4.609725,3.3869224,1.3889927,1.0
-4.742709,3.8751793,1.4230505,1.0
-3.6827264,2.5962029,1.3330846,1.0
-4.5076017,3.5334332,1.6435633,1.0
-5.7127705,2.4568026,1.0496283,98.0
-5.47405,2.6806037,0.9962325,52.0
-5.7737203,2.321128,1.3787076,1.0
-5.4765644,3.1096342,0.98529273,91.0
-4.5759935,2.4805927,1.078965,8.0
-4.3501825,2.6396852,1.0082028,62.0
-4.702506,2.2663636,1.9991139,10.0
-4.214016,2.9499018,0.97048175,57.0
-4.298439,3.340824,0.97906286,10.0
-4.0891776,2.3209968,1.7533594,254.0
-3.68231,2.3450487,1.5854303,6.0
-5.7504315,3.1908748,0.8210801,66.0
-4.1873612,2.2522783,2.0551991,125.0
-3.7493234,2.2722933,1.8526021,120.0
-3.5865486,2.6390471,1.5682832,118.0
-3.5073228,2.8604584,1.5460628,202.0
-3.5369637,2.5005987,1.7747971,168.0
-3.4786618,2.7294378,1.7670327,151.0
-5.1588154,2.172602,1.555278,88.0
-4.7578816,2.2891269,1.4230194,1.0
-5.472345,2.1469512,1.9559339,34.0
-4.8052845,2.1761951,1.7150156,75.0
-3.9278095,2.4889605,1.1683455,100.0
-4.215799,2.2598183,1.5141673,36.0
-4.5442753,3.2955384,1.3624281,1.0
-4.7730055,3.8502102,1.4249027,1.0
-4.482788,3.4684637,1.6261266,1.0
-5.7789807,2.4421704,1.059242,88.0
-5.4854636,2.6435704,0.9952325,60.0
-5.751861,2.2706017,1.3698498,1.0
-5.593306,2.5475967,1.325772,1.0
-5.5287895,3.0933735,0.99136376,102.0
-5.6788197,3.568793,0.9903671,1.0
-4.4019065,2.6335645,1.0166321,55.0
-4.812444,2.2826574,2.040522,18.0
-4.2486625,2.934458,0.9743155,67.0
-4.319345,3.3137503,0.97906286,21.0
-4.15274,2.32242,1.7746986,254.0
-3.725467,2.339948,1.597963,1.0
-5.758191,3.1480734,0.81905705,45.0
-3.8012629,2.2714765,1.8715969,83.0
-3.5832007,2.6021774,1.5594721,121.0
-3.5032473,2.8205051,1.5361661,213.0
-3.5298312,2.462597,1.7632244,135.0
-3.517626,2.7246377,1.7783617,54.0
-5.195509,2.1496236,1.5623827,95.0
-4.8017383,2.2733245,1.4320683,1.0
-5.5937004,2.153677,1.995077,28.0
-4.8569465,2.1630955,1.7288725,88.0
-4.275445,2.2570772,1.5308081,13.0
-4.7940664,3.8177104,1.4239765,1.0
-5.848875,2.4283013,1.0695424,72.0
-5.5179768,2.6167104,0.9982324,68.0
-5.751447,2.2288272,1.3663068,1.0
-5.5446525,3.056679,0.9907247,111.0
-5.74642,3.5612981,0.9985193,28.0
-4.438571,2.6178792,1.0214487,71.0
-4.857032,2.2666745,2.0535984,15.0
-4.252378,2.8978145,0.97086513,70.0
-4.343207,3.2889314,0.97979474,49.0
-4.068791,2.2425754,1.7320203,61.0
-3.7671146,2.333402,1.6097993,72.0
-5.7621493,3.1034348,0.81645596,42.0
-4.218586,2.2011616,2.05681,39.0
-3.8438687,2.2644587,1.885843,130.0
-3.5948763,2.5763452,1.5574387,119.0
-3.5429904,2.8161595,1.5460628,143.0
-3.578781,2.463229,1.7801977,192.0
-3.5200155,2.6911669,1.770809,155.0
-5.27674,2.144217,1.5831506,91.0
-4.896173,2.2808602,1.4565538,81.0
-5.6780925,2.1450279,2.0207446,14.0
-4.9485583,2.1670964,1.7572162,92.0
-4.336913,2.2545455,1.5480651,33.0
-4.82101,3.7899284,1.4249027,1.0
-3.6716197,2.762964,1.3117049,1.0
-5.5539365,2.5912251,1.001899,55.0
-5.8237453,2.2146392,1.3804792,1.0
-5.797976,2.5540247,1.3676893,1.0
-5.542893,3.0105405,0.9868904,93.0
-5.798993,3.54377,1.003954,1.0
-4.4887314,2.6097677,1.0294765,84.0
-4.871038,2.2453341,2.0550513,42.0
-4.2741446,2.8832,0.972782,74.0
-4.09083,2.2295883,1.7369994,114.0
-3.7956028,2.3264818,1.6174581,88.0
-5.767962,3.071623,0.81501096,46.0
-4.285981,2.2103858,2.0849993,73.0
-3.9035602,2.2752132,1.910378,98.0
-3.5838835,2.543149,1.547272,123.0
-3.5118737,2.7641978,1.5262692,54.0
-3.58423,2.4422097,1.7771116,196.0
-3.5282443,2.6711757,1.7685432,72.0
-5.3350697,2.138483,1.5979067,91.0
-5.842769,2.1752417,2.0765717,31.0
-4.9917665,2.1581893,1.7691836,75.0
-4.1169677,2.511078,1.2129273,1.0
-4.355969,2.2383962,1.5511466,13.0
-3.7030084,2.48226,1.3185576,1.0
-3.6738617,2.7375562,1.3077676,1.0
-6.0106606,2.4178321,1.0949501,3.0
-5.6143684,2.587469,1.0108987,70.0
-6.4356785,2.4104555,1.52619,1.0
-5.836771,2.538442,1.3741713,1.0
-5.471643,2.9388902,0.9712334,63.0
-4.5331774,2.607272,1.037103,85.0
-4.8935204,2.2185638,2.0586836,29.0
-4.297091,2.859531,0.97393215,75.0
-4.1443753,2.2248893,1.7540708,94.0
-3.822947,2.310404,1.6230282,99.0
-5.748528,3.015219,0.8086528,19.0
-4.3325,2.199852,2.1011076,39.0
-3.9431949,2.2653952,1.9230412,100.0
-3.5905137,2.514148,1.5432054,123.0
-3.5024312,2.7211046,1.5143931,147.0
-3.608721,2.4257746,1.7817408,141.0
-3.5168688,2.627763,1.7541934,116.0
-5.3968034,2.123772,1.6126629,87.0
-5.8848243,2.1487908,2.0868387,18.0
-5.064533,2.1522446,1.7905989,86.0
-4.15087,2.496214,1.2184376,1.0
-4.427791,2.239948,1.5721016,35.0
-3.7505534,2.4799101,1.3301792,1.0
-3.7002363,2.7212822,1.3111424,1.0
-6.089952,2.4051504,1.1069672,1.0
-5.6645904,2.5677228,1.017232,73.0
-6.6761165,2.452034,1.5806655,8.0
-5.861571,2.5055847,1.3763319,1.0
-5.48126,2.8998656,0.9696358,66.0
-5.7935324,3.4533412,0.9961038,16.0
-4.5681777,2.5894384,1.0415183,90.0
-5.0178013,2.23751,2.1059036,9.0
-4.303457,2.8249805,0.9712485,76.0
-4.1897407,2.2152715,1.7675856,94.0
-3.8357818,2.2853713,1.622332,169.0
-4.397104,2.197749,2.1260753,94.0
-3.9812648,2.254256,1.934913,95.0
-3.5938153,2.4830396,1.5377831,120.0
-3.5672324,2.7360306,1.5355062,50.0
-3.6177208,2.3990023,1.7786547,40.0
-3.5229125,2.597872,1.7489066,94.0
-5.478329,2.1159248,1.6334307,90.0
-5.0350785,2.2409768,1.4868945,1.0
-5.1514115,2.1513724,1.817053,80.0
-4.2013617,2.4909666,1.2289568,1.0
-4.4486036,2.2154481,1.5745668,13.0
-3.8187072,2.6034236,1.1156178,1.0
-3.7644534,2.4552577,1.3295981,1.0
-3.7188098,2.6991136,1.3117049,1.0
-5.7093887,2.5450206,1.0225651,54.0
-6.6656756,2.4008596,1.574465,1.0
-5.8897834,2.4740403,1.379357,1.0
-5.5151567,2.8735275,0.9725116,80.0
-5.772577,3.3917034,0.9885555,1.0
-4.6031327,2.5712676,1.0459336,64.0
-4.990869,2.1878304,2.0884686,44.0
-4.342596,2.8116698,0.97623235,76.0
-4.238471,2.2068832,1.782523,95.0
-3.9097219,2.2966294,1.6480935,203.0
-4.529334,2.2277749,2.1840649,135.0
-4.044949,2.2571602,1.959448,123.0
-3.596868,2.4519892,1.5323609,116.0
-3.5588503,2.6940742,1.5242898,145.0
-3.5893536,2.348145,1.7570522,88.0
-3.5152893,2.558139,1.7368225,122.0
-5.572576,2.1118658,1.6580243,91.0
-5.096669,2.2303386,1.5012665,16.0
-6.152931,2.1585746,2.1734667,49.0
-5.2349687,2.1480389,1.8422474,77.0
-4.260288,2.4901023,1.2419808,1.0
-4.5172157,2.2140281,1.5942892,36.0
-3.8349895,2.5793786,1.1156178,1.0
-3.7265394,2.3976302,1.3104227,1.0
-3.7325847,2.6734457,1.31058,1.0
-5.7360883,2.5138822,1.0245651,27.0
-6.697197,2.3647275,1.578451,1.0
-5.9142256,2.4407384,1.3815176,1.0
-5.527824,2.8361318,0.97155297,81.0
-5.773279,3.3434143,0.9849323,1.0
-4.928833,2.4061027,1.1387813,1.0
-4.646603,2.557516,1.0523559,81.0
-5.1189885,2.2062616,2.1371412,51.0
-4.3585176,2.7832792,0.97584903,75.0
-4.2889266,2.198815,1.7981718,89.0
-3.9224565,2.2710721,1.6473973,189.0
-4.55645,2.2056003,2.1905084,70.0
-4.105614,2.2575681,1.9824001,75.0
-3.6012392,2.4220417,1.5276164,113.0
-3.6103756,2.6978104,1.539465,55.0
-3.5698228,2.3036985,1.7400787,36.0
-3.5252964,2.5316522,1.7338014,94.0
-5.70129,2.1193266,1.6930017,179.0
-5.1707006,2.2243915,1.5193644,66.0
-5.3098946,2.1401596,1.8642925,74.0
-4.2942605,2.473993,1.2474909,1.0
-4.549925,2.194619,1.6010687,14.0
-4.2217736,2.3010962,1.4755528,1.0
-3.6678448,2.434786,1.0610393,1.0
-3.7593567,2.3853655,1.3168144,1.0
-3.6946247,2.6109264,1.2908934,1.0
-6.359661,2.3733048,1.1488556,1.0
-5.8150706,2.5053048,1.0362314,1.0
-6.52005,2.2568202,1.5323905,1.0
-5.7812386,2.342905,1.3460824,1.0
-5.5702467,2.8137257,0.97602636,80.0
-5.7856016,3.3021476,0.98342264,1.0
-5.00743,2.4053397,1.15384,51.0
-4.6969566,2.5470815,1.0603837,59.0
-5.2269735,2.214371,2.1770966,63.0
-4.38591,2.7620761,0.97814924,77.0
-4.431883,3.1106012,0.9735739,39.0
-4.336102,2.1885288,1.8123978,109.0
-3.9626362,2.2613664,1.6585374,162.0
-4.6198945,2.200346,2.2146707,95.0
-5.7424154,3.072849,0.7789198,44.0
-4.155164,2.2511287,1.9998119,123.0
-3.6116679,2.396268,1.5255831,111.0
-3.5803077,2.6401212,1.5190116,147.0
-3.5982792,2.290073,1.7470224,39.0
-3.530592,2.5019076,1.7285146,121.0
-5.7506876,2.0965219,1.7039323,51.0
-5.2572665,2.222901,1.5411884,72.0
-4.388673,2.49222,1.2710342,1.0
-4.6256223,2.195108,1.6232563,35.0
-4.274724,2.295448,1.4893413,1.0
-3.8556993,2.5235946,1.1122367,144.0
-3.7514932,2.3475897,1.3086793,1.0
-3.742344,2.6097581,1.3021429,1.0
-6.4040837,2.3440468,1.1543491,1.0
-5.8470182,2.4756908,1.0392313,66.0
-6.352912,2.1549602,1.4889872,1.0
-5.591357,2.780418,0.97666544,81.0
-5.7907534,3.2569604,0.98070526,1.0
-4.719766,2.5212386,1.0619893,95.0
-4.405557,2.745504,0.97968274,83.0
-4.431998,3.0795295,0.9702806,13.0
-4.3983283,2.1937194,1.8344483,41.0
-3.9993067,2.2575297,1.6696775,63.0
-4.7447214,2.2318735,2.2702441,129.0
-4.2044935,2.2525055,2.0188067,49.0
-3.6150317,2.3740945,1.5221943,122.0
-3.617025,2.6411452,1.5295682,56.0
-3.6309547,2.286754,1.7578237,23.0
-5.840264,2.0977535,1.7279793,56.0
-5.31032,2.2160723,1.5539634,76.0
-4.666982,2.1876996,1.6343501,14.0
-4.347708,2.3086448,1.5115228,1.0
-3.9018528,2.527405,1.1223797,123.0
-3.8179903,2.3638864,1.3284359,1.0
-3.8160086,2.634894,1.3240793,1.0
-6.4781427,2.3363838,1.1660229,1.0
-5.918585,2.4733932,1.050231,99.0
-6.431512,2.14765,1.5053742,1.0
-5.78305,2.2698443,1.3404647,1.0
-5.616821,2.7600932,0.97890216,81.0
-5.823285,3.2392995,0.9837246,1.0
-4.755801,2.5118716,1.0676087,79.0
-4.424397,2.71879,0.9800661,78.0
-4.456112,3.0549755,0.9713784,41.0
-4.0330253,2.2433803,1.6780325,62.0
-4.7719655,2.2081165,2.2766874,93.0
-3.6409655,2.3584428,1.5269387,118.0
-3.5969064,2.591709,1.5137333,139.0
-3.6562557,2.2706575,1.7632244,38.0
-3.5518172,2.4586914,1.7254936,71.0
-6.00412,2.113557,1.7733407,135.0
-5.3651066,2.1996274,1.5662062,69.0
-5.5885935,2.1419935,1.9505833,1.0
-4.7394876,2.18519,1.655305,36.0
-4.3705635,2.285738,1.5145203,22.0
-3.9406168,2.5173671,1.1291416,88.0
-3.6743457,2.5021129,1.2678322,1.0
-5.9668026,2.449742,1.0562309,80.0
-6.3595223,2.0795724,1.4850012,1.0
-5.644733,2.7298703,0.98081934,83.0
-5.800252,3.1787596,0.97617626,1.0
-4.8044505,2.4992442,1.0752352,86.0
-4.4531717,2.6980114,0.9827497,82.0
-4.473594,3.025809,0.9710124,13.0
-4.5554023,2.2003567,1.8892188,9.0
-4.0864053,2.2397957,1.6947428,54.0
-4.784076,2.1773381,2.275882,48.0
-4.284504,2.2268188,2.0441332,47.0
-3.6588929,2.3375306,1.5282942,101.0
-3.6207879,2.5745635,1.5170323,51.0
-3.6909664,2.2600698,1.773254,158.0
-3.57939,2.4447396,1.7315357,65.0
-6.0282054,2.07952,1.7766198,163.0
-5.419894,2.1825807,1.5784489,73.0
-5.7119575,2.1486404,1.9896348,61.0
-4.7756906,2.1654952,1.6633172,14.0
-4.417,2.2749634,1.5259107,21.0
-3.972822,2.502832,1.1339716,104.0
-3.7154062,2.496218,1.2768316,1.0
-6.0514874,2.440447,1.0688972,97.0
-6.6457834,2.1261377,1.550106,112.0
-6.3474617,2.4017792,1.4675126,1.0
-5.6796284,2.7027757,0.98401463,85.0
-5.8079524,3.1356406,0.97406274,1.0
-4.8583493,2.4888034,1.0840658,29.0
-4.488616,2.680978,0.98696685,87.0
-4.518621,3.015201,0.9768673,43.0
-4.7653465,2.2639832,1.9717302,16.0
-4.1580024,2.245506,1.7191118,83.0
-4.9181776,2.200615,2.3338716,60.0
-4.3375673,2.2201028,2.063128,37.0
-3.687878,2.3234553,1.5343943,135.0
-3.6014597,2.5266588,1.5018572,148.0
-3.7557852,2.2671137,1.7979426,85.0
-3.4905777,2.3513417,1.680178,145.0
-5.4782586,2.1663618,1.5917562,80.0
-5.8374,2.1544833,2.029316,55.0
-4.797991,2.2705114,1.3877108,1.0
-4.860573,2.166938,1.6885864,37.0
-4.4566793,2.2602148,1.5349032,21.0
-3.6512685,2.419446,1.248708,1.0
-6.1253014,2.4257932,1.0795636,82.0
-6.7167635,2.1022317,1.5638356,83.0
-6.3093963,2.3419828,1.4549807,1.0
-5.710824,2.6736872,0.98657084,73.0
-5.799656,3.0841477,0.9692318,10.0
-4.5070677,2.6537118,0.9873502,82.0
-4.517817,2.9737036,0.9724761,29.0
-4.798138,2.242632,1.9795545,65.0
-4.1984525,2.2335389,1.7302519,73.0
-4.415265,2.225308,2.0939946,17.0
-3.737668,2.3219197,1.5493053,74.0
-3.6466646,2.5245342,1.5143931,54.0
-3.776316,2.247216,1.8010287,159.0
-3.6205902,2.4067945,1.7368225,59.0
-6.3025184,2.0850227,1.850947,86.0
-5.567143,2.161461,1.6141125,77.0
-5.972051,2.1620922,2.0721464,27.0
-4.8560233,2.260536,1.4006529,1.0
-4.9107485,2.1522555,1.7015291,15.0
-4.511679,2.2527905,1.5492911,20.0
-3.878177,2.6488628,1.083188,1.0
-4.1759734,2.4407206,1.4336104,1.0
-3.7657,2.4620233,1.2835814,69.0
-6.186317,2.4052653,1.0878967,75.0
-6.8250346,2.0888264,1.586423,87.0
-5.7526536,2.6492338,0.9910442,79.0
-5.7961884,3.0356514,0.9653067,48.0
-4.8577104,2.4117553,1.0768408,1.0
-4.5440707,2.637085,0.9919507,91.0
-4.523251,2.9366438,0.9695487,43.0
-4.8257446,2.2186346,1.985245,67.0
-4.2621136,2.2334328,1.7511396,85.0
-4.5227532,2.2444391,2.1391072,103.0
-3.7586195,2.3022914,1.5520165,144.0
-3.6173837,2.4704828,1.4952593,152.0
-3.8350456,2.2493794,1.8226312,125.0
-3.5677097,2.338998,1.7035911,37.0
-6.3979387,2.071804,1.8755405,56.0
-5.6309905,2.1458316,1.6290168,72.0
-6.0909414,2.1623263,2.1093082,114.0
-4.9915366,2.285014,1.4363729,1.0
-4.9714313,2.1415045,1.7181698,33.0
-4.553088,2.237975,1.5588832,19.0
-4.129223,2.4932528,1.1658492,1.0
