x,y,z,intensity
-7.181423,-10.725369,0.47730047,141.0
-7.217446,-12.0574465,1.0919359,140.0
-7.072085,-10.9003935,0.9329298,94.0
-7.5861945,-10.468995,0.41823965,100.0
-8.080958,-10.341937,0.34249273,99.0
-7.8436217,-10.338215,0.7784027,126.0
-8.4994135,-10.36844,0.73710316,113.0
-6.6295867,-10.812899,-0.32608292,50.0
-7.2568626,-10.91329,-0.40992922,54.0
-7.0906315,-11.904566,0.116373405,100.0
-7.279374,-11.288422,0.033094175,40.0
-7.53811,-10.459241,-0.45703357,45.0
-8.015575,-10.323434,-0.54593545,103.0
-7.7752914,-10.313239,-0.1082062,106.0
-8.4764,-10.362356,-0.18236116,91.0
-7.979031,-10.293517,1.2369094,145.0
-8.743267,-10.448239,1.2330981,165.0
-6.845774,-11.237998,0.5631275,80.0
-7.1646605,-10.846878,0.4816811,70.0
-6.822369,-11.559867,1.0368147,109.0
-7.0013027,-10.941258,0.93260115,62.0
-7.4901137,-10.474147,0.4160046,94.0
-7.9730096,-10.337182,0.33993208,120.0
-7.7605357,-10.363367,0.776289,82.0
-8.751829,-10.495344,0.29622057,125.0
-8.391492,-10.368827,0.73267335,96.0
-7.1434503,-11.820496,-0.34282058,99.0
-7.270597,-11.0839405,-0.4130423,82.0
-7.012664,-11.943705,0.11626334,91.0
-7.191091,-11.306962,0.03268694,11.0
-7.4444947,-10.46725,-0.45584574,90.0
-7.913999,-10.326051,-0.54406327,95.0
-7.706749,-10.357081,-0.10821997,88.0
-8.364719,-10.357769,-0.18211511,109.0
-7.89361,-10.316626,1.2333384,59.0
-8.574968,-10.378554,1.2168702,72.0
-6.939128,-11.554982,0.5801545,47.0
-7.0909004,-10.883321,0.48120496,72.0
-6.678656,-11.480123,1.0244298,52.0
-6.9441495,-11.003556,0.9344088,63.0
-7.433351,-10.534077,0.4166923,72.0
-7.87636,-10.345776,0.3380299,94.0
-7.304325,-10.678463,0.85594094,38.0
-7.7416115,-10.474422,0.7817846,148.0
-8.634982,-10.488319,0.29368037,105.0
-8.2764435,-10.358903,0.7274618,130.0
-7.2410965,-11.191459,-0.41457808,78.0
-6.9314866,-11.977138,0.11604319,84.0
-6.659757,-10.620732,0.021691548,1.0
-7.3808722,-10.517095,-0.45594472,43.0
-7.8114986,-10.326209,-0.5421287,104.0
-7.3510566,-10.7957115,-0.020623391,1.0
-7.685417,-10.464874,-0.108050145,140.0
-8.262144,-10.36315,-0.1819156,111.0
-7.7901964,-10.3152895,1.2266164,113.0
-8.440538,-10.347313,1.2058512,132.0
-7.0744295,-11.950977,0.60197026,111.0
-6.9704123,-10.84707,0.47663385,37.0
-6.648894,-11.596246,1.0319304,163.0
-6.928722,-11.133193,0.9427897,96.0
-7.76548,-10.3344145,0.33524975,119.0
-7.2827144,-10.791988,0.8622237,162.0
-7.656795,-10.497098,0.77953,92.0
-8.402789,-10.337358,0.28529766,81.0
-8.182822,-10.374616,0.7244652,111.0
-6.925879,-10.854477,-0.40515584,31.0
-6.540169,-10.577405,0.020418933,1.0
-7.7093105,-10.325488,-0.54019403,97.0
-7.3387117,-10.924779,-0.019725876,1.0
-7.6053987,-10.493546,-0.10810522,70.0
-8.167449,-10.343821,-0.18166955,120.0
-7.7713423,-10.391659,1.2318679,79.0
-8.371713,-10.362176,1.2026457,92.0
-6.7653484,-11.551237,0.57525927,169.0
-6.8697824,-10.802332,0.4722532,63.0
-6.6010356,-11.639591,1.0331515,87.0
-6.895042,-11.196241,0.9457476,84.0
-7.748976,-10.414136,0.3372251,88.0
-7.232883,-10.8278475,0.8623769,96.0
-7.5580783,-10.465212,0.7736116,118.0
-8.302684,-10.312922,0.28269392,87.0
-8.09338,-10.361096,0.7201656,112.0
-6.86716,-10.87517,-0.40486526,43.0
-7.378717,-12.054955,0.042027935,1.0
-7.698677,-10.41308,-0.5421911,91.0
-7.2827296,-10.952572,-0.019797677,13.0
-7.5021095,-10.454607,-0.10831635,130.0
-8.076528,-10.361768,-0.1815299,91.0
-7.7153654,-10.45307,1.2335484,102.0
-8.260618,-10.35694,1.1952329,133.0
-6.69662,-11.600442,0.5756849,99.0
-6.826249,-10.88417,0.47444353,53.0
-6.3823757,-11.419733,1.0069864,63.0
-7.235661,-10.639435,0.41557476,1.0
-7.6964307,-10.480319,0.3380299,146.0
-7.157045,-10.861411,0.8613043,110.0
-7.481731,-10.497889,0.7723434,82.0
-8.2042055,-10.32258,0.28097928,89.0
-7.997715,-10.372185,0.7169084,112.0
-8.693433,-10.471211,0.6727335,182.0
-6.8537955,-11.00628,-0.40702367,21.0
-7.3533864,-10.873506,-0.46282429,1.0
-7.6319175,-10.459634,-0.5421287,128.0
-7.2684836,-11.081813,-0.01890016,1.0
-7.4235315,-10.4836035,-0.10836683,91.0
-7.9674473,-10.355177,-0.18129048,120.0
-8.581375,-10.351451,-0.24490424,147.0
-7.6155014,-10.454771,1.2274566,109.0
-8.1658945,-10.37107,1.1904246,93.0
-6.597992,-11.597116,0.57291806,129.0
-6.780904,-10.964188,0.47653863,32.0
-6.4063334,-11.634284,1.0244298,162.0
-7.368643,-12.3054695,1.0441818,38.0
-7.3230486,-10.915573,0.42752376,1.0
-7.5869393,-10.468659,0.33532292,96.0
-7.0799866,-10.8927765,0.8600784,105.0
-8.098546,-10.321962,0.2788836,88.0
-7.8829317,-10.357041,0.71156657,107.0
-8.466445,-10.329772,0.65762764,107.0
-6.1758804,-10.940722,-0.32430232,15.0
-6.5799575,-10.717171,-0.3989297,46.0
-7.1159525,-11.961267,0.039279085,80.0
-7.269423,-10.896184,-0.46213138,1.0
-7.5391226,-10.470111,-0.5406933,88.0
-7.288662,-11.266772,-0.017410284,1.0
-7.8660126,-10.357195,-0.18109098,95.0
-8.450176,-10.324786,-0.24407624,103.0
-7.52872,-10.473378,1.2236755,114.0
-8.049382,-10.356105,1.18201,140.0
-8.773354,-10.477279,1.1320845,133.0
-6.523047,-11.634856,0.5727052,103.0
-6.755677,-11.078143,0.48053834,1.0
-6.825997,-11.566034,0.96891826,118.0
-7.170706,-10.834602,0.4209905,79.0
-7.4848914,-10.465783,0.33305493,128.0
-7.004965,-10.926963,0.85915893,88.0
-7.996885,-10.325173,0.27697846,84.0
-8.724306,-10.476256,0.20279998,161.0
-7.7722445,-10.345661,0.70661557,101.0
-8.361112,-10.333161,0.65382147,108.0
-6.2165413,-11.176969,-0.3276558,1.0
-7.1562057,-11.817815,-0.42466444,141.0
-5.673297,-10.508989,0.08126016,30.0
-7.0345726,-11.9954,0.03912637,82.0
-7.265514,-11.040284,-0.4650515,1.0
-7.440696,-10.471698,-0.5389459,104.0
-6.8989983,-10.811128,-0.02274153,1.0
-7.7648687,-10.358349,-0.18089147,122.0
-8.343581,-10.326405,-0.24355076,98.0
-7.4339333,-10.479964,1.218424,48.0
-7.941845,-10.351152,1.174998,118.0
-8.669215,-10.486209,1.12653,94.0
-6.4247756,-11.630121,0.5699383,114.0
-6.959434,-11.573652,0.5057747,30.0
-5.653827,-10.576017,0.9115708,96.0
-6.591404,-11.331551,0.942461,55.0
-7.1035786,-10.881118,0.42107645,89.0
-7.436311,-10.537072,0.33415234,84.0
-7.397756,-10.804771,0.7867166,1.0
-7.8979273,-10.330696,0.2752003,91.0
-8.615059,-10.47842,0.20110121,114.0
-7.7533484,-10.456886,0.71169686,136.0
-8.253575,-10.3325205,0.6497774,115.0
-6.1624823,-11.245647,-0.3281603,45.0
-6.3053017,-11.862725,0.10863162,1.0
-6.9791317,-12.073961,0.039635416,31.0
-7.239444,-11.152865,-0.4670312,1.0
-7.3862557,-10.534592,-0.53957,69.0
-6.7916207,-10.791572,-0.023405692,1.0
-7.4151497,-10.900839,-0.10759118,1.0
-7.7589827,-10.487415,-0.18122399,91.0
-8.241049,-10.331778,-0.24307308,94.0
-7.345077,-10.493914,1.2142227,75.0
-7.8442802,-10.3579645,1.1695887,107.0
-8.4379,-10.338616,1.1022756,80.0
-6.0480437,-11.490055,0.9984391,142.0
-6.6532793,-11.60425,0.96448135,150.0
-7.035071,-10.925535,0.42107645,74.0
-6.833427,-10.959923,0.8542553,67.0
-7.3039784,-10.813056,0.7834756,112.0
-7.798016,-10.333787,0.27335864,101.0
-8.408929,-10.360242,0.19555525,110.0
-7.687493,-10.505395,0.71169686,109.0
-8.152572,-10.338767,0.64632803,114.0
-5.702407,-10.560277,-0.31596315,49.0
-6.5062118,-12.430462,0.119565524,1.0
-6.8346534,-11.997775,0.03787921,114.0
-6.920795,-10.808779,-0.45559826,1.0
-6.735252,-10.852742,-0.023208238,1.0
-7.3420434,-10.940578,-0.10760954,92.0
-7.6752734,-10.47702,-0.18103112,130.0
-8.13389,-10.296828,-0.24232468,121.0
-6.6766663,-10.419982,1.2531255,100.0
-7.275107,-10.499016,1.2104416,102.0
-7.794191,-10.393221,1.1693883,95.0
-8.338917,-10.316392,1.0948696,115.0
-5.6660833,-10.524304,0.4988508,39.0
-6.8165593,-11.623648,0.5043462,1.0
-5.993831,-11.518428,0.9984391,69.0
-6.5926065,-11.625079,0.9634954,72.0
-6.9695816,-10.936638,0.41995892,71.0
-6.857944,-11.116012,0.86544174,150.0
-7.2062597,-10.777772,0.7775572,73.0
-7.7408743,-10.359198,0.2729141,77.0
-8.314833,-10.343722,0.19375657,111.0
-7.599344,-10.488112,0.70739734,113.0
-8.059437,-10.320492,0.64204603,117.0
-5.6122074,-10.511107,-0.31468704,188.0
-5.3928256,-10.415268,0.077334225,181.0
-6.7386694,-11.960216,0.036861118,58.0
-7.351493,-10.73379,-0.54406327,35.0
-7.272763,-11.846484,-0.013084256,1.0
-7.279314,-10.958413,-0.107655436,60.0
-7.588247,-10.4958315,-0.18091142,110.0
-8.040691,-10.311502,-0.24195844,99.0
-6.5845904,-10.41968,1.2475374,152.0
-7.1831183,-10.506797,1.2056102,118.0
-7.7594504,-10.483623,1.1745973,134.0
-8.229131,-10.312615,1.0882043,90.0
-6.1025577,-11.511577,0.55621034,147.0
-6.6972833,-11.586757,0.49996558,148.0
-5.9050364,-11.523919,0.9952993,98.0
-5.916887,-10.59188,0.86193895,45.0
-6.9314847,-11.029324,0.42245188,49.0
-7.3962264,-10.873641,0.34344384,1.0
-6.871694,-11.29701,0.877854,60.0
-7.132894,-10.814519,0.7768526,132.0
-7.7194395,-10.467224,0.27526382,113.0
-8.206095,-10.341013,0.19200785,109.0
-7.5066557,-10.498272,0.70440066,100.0
-7.9590144,-10.325127,0.6385967,109.0
-5.53956,-10.533762,-0.31447932,37.0
-5.3625803,-10.518486,0.07876517,168.0
-6.6312704,-11.944668,0.03602119,51.0
-7.401694,-10.953503,-0.55061597,1.0
-7.281734,-11.112559,-0.10735711,61.0
-5.917189,-10.419641,1.2560488,72.0
-7.486221,-10.492775,-0.18070528,104.0
-7.932962,-10.306417,-0.24140114,98.0
-6.5179434,-10.459158,1.2473139,51.0
-7.0924354,-10.515485,1.2009888,70.0
-7.6641455,-10.491951,1.1695887,102.0
-8.117254,-10.304744,1.0811687,110.0
-6.0632844,-11.613479,0.5600414,65.0
-6.6174097,-11.616467,0.49929896,72.0
-5.8190937,-11.53409,0.99268275,104.0
-6.414191,-11.649433,0.9580724,142.0
-6.898796,-11.13216,0.42546064,127.0
-7.3701773,-10.982899,0.34622395,140.0
-7.11258,-11.862045,0.9245917,57.0
-7.072438,-10.870816,0.777839,71.0
-7.6183057,-10.466978,0.27335864,93.0
-8.101426,-10.342064,0.19040902,116.0
-7.430213,-10.530538,0.70322806,71.0
-7.8540077,-10.322561,0.63467157,113.0
-5.4173512,-10.459942,-0.31266904,189.0
-6.2082906,-10.982631,-0.39975983,25.0
-5.280294,-10.519775,0.078104734,159.0
-6.561863,-11.996615,0.036173906,101.0
-6.650361,-10.792139,-0.4516883,1.0
-7.2560406,-10.88514,-0.5463099,49.0
-7.1407046,-11.966159,-0.012779101,23.0
-7.27162,-11.250383,-0.107104674,89.0
-5.844793,-10.44449,1.25443,60.0
-7.422443,-10.542879,-0.18071857,58.0
-7.8292527,-10.30516,-0.24089159,97.0
-6.431344,-10.466003,1.2428434,100.0
-7.5655594,-10.49465,1.1639789,135.0
-8.022951,-10.317858,1.0767251,75.0
-5.97836,-11.628238,0.55865794,96.0
-6.5276217,-11.628227,0.49768,108.0
-5.744742,-11.566853,0.9923339,101.0
-6.868205,-11.240139,0.42872724,39.0
-7.375114,-11.140536,0.35112578,87.0
-7.068274,-11.958045,0.92918885,134.0
-6.993195,-10.898265,0.7764299,103.0
-7.511663,-10.457749,0.27113596,86.0
-7.9884915,-10.331151,0.18846044,106.0
-7.740939,-10.307924,0.6299138,114.0
-5.3669157,-10.524086,-0.31317353,57.0
-5.1937904,-10.511476,0.077260844,161.0
-6.6445484,-10.936334,-0.45465788,1.0
-7.264568,-11.047316,-0.5506784,79.0
-7.0744824,-12.026317,-0.012617548,1.0
-5.7694316,-10.463627,1.2521175,121.0
-7.71866,-10.293418,-0.24028651,117.0
-6.3510785,-10.482385,1.239714,91.0
-6.8951902,-10.505777,1.188595,45.0
-7.4660926,-10.494903,1.158169,90.0
-7.9069357,-10.301794,1.0689489,118.0
-5.302701,-10.470776,0.4873576,197.0
-6.443765,-11.649798,0.49663246,87.0
-5.669336,-11.597345,0.99181056,108.0
-5.751993,-10.768272,0.8681835,57.0
-6.9753723,-11.579444,0.44359902,36.0
-7.142862,-10.93923,0.3402979,37.0
-6.7566776,-11.595246,0.8930246,170.0
-6.9042606,-10.909991,0.7737525,70.0
-7.42966,-10.481882,0.2702469,93.0
-7.893033,-10.341454,0.18721135,113.0
-7.389747,-10.758113,0.7139118,77.0
-7.732013,-10.431655,0.6355041,109.0
-5.2720704,-10.5003605,-0.31222388,183.0
-6.0553193,-11.033506,-0.39913723,1.0
-5.1189284,-10.525904,0.07689393,160.0
-6.4529033,-12.157553,0.037319258,36.0
-7.2419,-11.164786,-0.55336183,61.0
-6.982769,-12.042824,-0.012904753,28.0
-6.9696183,-11.087134,-0.10779312,1.0
-5.683597,-10.463046,1.2472613,57.0
-7.3728533,-10.757526,-0.18121068,47.0
-7.70987,-10.417179,-0.2410349,84.0
-6.2749276,-10.505003,1.2374787,99.0
-6.8052063,-10.5122,1.1839737,17.0
-7.816746,-10.317977,1.0650607,91.0
-5.239471,-10.5092535,0.48767683,203.0
-5.683309,-11.814212,1.0094285,124.0
-6.045449,-11.488031,0.93194383,140.0
-7.145707,-12.03402,0.4641444,42.0
-7.490553,-11.628493,0.3683918,46.0
-6.6807184,-11.632278,0.8925649,111.0
-6.8821673,-11.027552,0.77995276,68.0
-7.7941456,-10.346181,0.18581237,107.0
-7.3700395,-10.875447,0.7195142,138.0
-7.667498,-10.48164,0.6356231,118.0
-5.211289,-10.544044,-0.31240195,37.0
-5.6863694,-10.51951,-0.3861038,112.0
-5.03807,-10.527169,0.076270185,162.0
-5.4993386,-10.526106,0.013292288,154.0
-6.908123,-10.799595,-0.53813463,23.0
-6.88717,-12.0517025,-0.013263759,16.0
-6.7392488,-10.872574,-0.10849076,1.0
-5.621969,-10.466983,1.2442551,100.0
-7.434107,-10.9578285,-0.18187569,99.0
-7.6547713,-10.445339,-0.24095528,129.0
-6.2051883,-10.500202,1.2330083,133.0
-6.72655,-10.498983,1.1783019,1.0
-7.3264523,-10.542007,1.1539617,49.0
-7.758457,-10.3419695,1.0635796,92.0
-5.1775756,-10.508724,0.48618698,201.0
-5.622458,-11.830058,1.0083818,91.0
-6.0013957,-11.535828,0.93375146,77.0
-6.742635,-11.4761095,0.43465877,97.0
-7.018919,-11.012055,0.3400784,68.0
-6.611093,-11.637601,0.8902663,115.0
-6.879518,-11.139564,0.7865757,123.0
-7.746502,-10.384396,0.18586233,99.0
-7.2344065,-10.783965,0.70961225,118.0
-7.5816364,-10.467588,0.63193583,119.0
-5.1239405,-10.491152,-0.31112584,160.0
-5.5866203,-10.45281,-0.3839039,189.0
-4.967969,-10.507371,0.0753896,159.0
-5.438626,-10.530601,0.012986861,66.0
-6.791768,-10.729101,-0.5343278,1.0
-6.7880945,-12.009097,-0.0140356235,1.0
-7.2666364,-11.84438,-0.105957255,1.0
-5.5318604,-10.456486,1.2382426,43.0
-7.3018484,-10.909486,-0.18149664,63.0
-7.5654993,-10.4608555,-0.24063681,81.0
-6.1291165,-10.521793,1.2307731,52.0
-6.635952,-10.502407,1.1734705,1.0
-7.2600703,-10.587832,1.1539617,77.0
-7.7408247,-10.454456,1.0709854,100.0
-5.0966845,-10.510473,0.48437786,155.0
-6.132563,-11.55487,0.4855856,1.0
-5.5370827,-11.841671,1.0061142,119.0
-5.9169455,-11.550263,0.9316152,102.0
-6.7163367,-11.597857,0.43861312,78.0
-6.9922414,-11.123558,0.34300485,46.0
-6.526185,-11.658011,0.88842744,117.0
-6.836437,-11.22683,0.79023945,74.0
-7.3205714,-10.71609,0.27437472,1.0
-7.7108006,-10.473068,0.18711142,155.0
-7.1610126,-10.820877,0.7089608,101.0
-7.485467,-10.4728365,0.6288433,103.0
-5.0561953,-10.519531,-0.3110665,165.0
-5.538588,-10.521293,-0.38469255,61.0
-4.885888,-10.5039015,0.07469247,160.0
-5.344157,-10.509353,0.01219784,124.0
-6.7687955,-10.842712,-0.5369489,1.0
-6.670771,-11.97632,-0.014807487,35.0
-5.4503956,-10.461113,1.2343115,27.0
-7.285929,-11.035344,-0.18181585,60.0
-7.45072,-10.43989,-0.23996805,125.0
-6.0184846,-10.482459,1.2207144,35.0
-6.5550685,-10.520286,1.1705296,1.0
-7.2134256,-10.662939,1.157568,49.0
-7.6431937,-10.459524,1.0659865,97.0
-5.015977,-10.511621,0.48256874,198.0
-6.0969687,-11.663934,0.48939487,114.0
-5.4592514,-11.868982,1.0054165,92.0
-5.835253,-11.569429,0.9299719,90.0
-6.6235766,-11.60509,0.43689382,92.0
-6.560128,-10.585154,0.31791055,33.0
-6.4393606,-11.67432,0.88628215,118.0
-6.9428415,-11.563487,0.8144766,52.0
-7.621289,-10.4889965,0.18611215,118.0
-7.0950584,-10.869002,0.70922136,99.0
-7.41721,-10.516402,0.6286054,83.0
-4.9755187,-10.520334,-0.31056198,113.0
-5.447442,-10.5079975,-0.38357183,87.0
-4.80902,-10.510735,0.074215494,164.0
-5.270833,-10.52843,0.011994221,80.0
-6.7247,-10.924143,-0.53838426,1.0
-6.582916,-11.995187,-0.015040841,1.0
-5.370911,-10.468662,1.2308427,1.0
-7.2817807,-11.1815605,-0.18221486,104.0
-7.4057517,-10.515898,-0.24025466,51.0
-5.9388413,-10.495828,1.2175851,39.0
-6.493015,-10.568036,1.1713699,1.0
-7.2013874,-10.790898,1.1675853,47.0
-7.542304,-10.458939,1.0604321,93.0
-4.9329195,-10.506743,0.48044038,195.0
-6.004304,-11.664741,0.48739502,82.0
-5.372294,-11.875801,1.0028,105.0
-5.754442,-11.58981,0.9284929,91.0
-6.5397835,-11.627305,0.43594822,91.0
-6.9490905,-11.368992,0.34980887,1.0
-7.1675305,-12.107749,0.8556234,136.0
-7.3244576,-11.017199,0.2823764,1.0
-7.509697,-10.473378,0.18416357,120.0
-7.0147715,-10.894891,0.70778817,75.0
-5.356683,-10.493974,-0.38245112,63.0
-4.7249036,-10.500593,0.07340829,163.0
-5.1770773,-10.505777,0.0112052,120.0
-6.2753496,-11.223348,-0.4561922,1.0
-7.2299647,-11.908577,-0.5728327,1.0
-5.6859937,-10.511567,-0.030585822,47.0
-5.3023324,-10.496887,1.230149,1.0
-7.275001,-11.326472,-0.1826072,60.0
-5.847689,-10.48776,1.2117734,39.0
-6.457485,-10.659608,1.1776718,1.0
-7.432538,-11.29182,1.2224799,149.0
-7.43941,-10.45426,1.0545073,98.0
-4.850957,-10.503054,0.47841844,201.0
-5.3139906,-10.48969,0.42254236,175.0
-5.675362,-11.613212,0.9273426,86.0
-6.4511437,-11.640179,0.43457282,89.0
-7.406011,-12.286377,0.38719428,81.0
-5.662469,-10.573684,0.78345925,140.0
-6.147851,-10.541065,0.7237282,127.0
-7.1872835,-10.959258,0.27843907,35.0
-7.4286966,-10.499162,0.18351404,109.0
-6.898155,-10.86286,0.7019252,53.0
-7.363764,-10.72386,0.6369315,55.0
-4.802305,-10.492854,-0.30910784,110.0
-5.227574,-10.402468,-0.3795456,184.0
-4.6491637,-10.508112,0.072968,154.0
-5.096077,-10.507535,0.010772511,80.0
-5.199882,-10.457128,1.2206678,1.0
-6.7904925,-10.717484,-0.18003361,41.0
-7.360304,-10.735002,-0.24148075,65.0
-5.7587814,-10.48245,1.2064087,32.0
-6.4568515,-10.810855,1.1913259,40.0
-7.4814463,-11.523739,1.2447182,37.0
-4.7684126,-10.496929,0.47629008,203.0
-5.249767,-10.5264435,0.42273283,110.0
-5.6724877,-11.79403,0.9406534,121.0
-5.7552757,-10.536088,0.3785243,35.0
-7.200735,-12.118076,0.3780491,49.0
-6.0920544,-11.553527,0.86544174,91.0
-6.0675387,-10.555294,0.7217554,75.0
-7.390147,-11.425911,0.2943789,61.0
-6.8234262,-10.895829,0.70114344,46.0
-7.243489,-10.692313,0.63134116,86.0
-4.7199306,-10.48632,-0.3085143,68.0
-5.204818,-10.521062,-0.38153794,71.0
-4.5671616,-10.500413,0.07223418,163.0
-5.014395,-10.5068865,0.01031437,122.0
-7.020684,-11.898719,-0.56921315,34.0
-5.510845,-10.500654,-0.031411536,1.0
-6.7399125,-10.749365,-0.18003361,105.0
-7.296126,-10.74973,-0.24128968,147.0
-5.698917,-10.490243,1.20395,42.0
-6.433228,-10.887351,1.1969975,77.0
-7.1061654,-11.057824,1.1848149,57.0
-4.709938,-10.499223,0.47511947,204.0
-5.189469,-10.529581,0.42159006,108.0
-5.338621,-12.367713,1.0410011,88.0
-5.616847,-11.82063,0.9406534,84.0
-5.698935,-10.550774,0.37792256,37.0
-6.7658362,-11.511462,0.35083312,160.0
-6.0173235,-11.543173,0.8620705,171.0
-5.9860835,-10.528324,0.7172461,119.0
-7.065273,-11.035937,0.27837557,79.0
-6.842261,-11.041634,0.70987284,145.0
-7.1941366,-10.727984,0.6314601,136.0
-4.6599464,-10.484671,-0.3081285,139.0
-5.130505,-10.495215,-0.38037574,48.0
-4.5121293,-10.508946,0.07197735,164.0
-4.953699,-10.506904,0.009983489,79.0
-5.6072764,-10.444964,-0.43134654,1.0
-5.4190745,-10.444775,-0.03223725,94.0
-6.8547792,-12.135664,-0.105860874,1.0
-7.290898,-10.888324,-0.24218138,45.0
-5.6132627,-10.489011,1.199256,35.0
-6.334581,-10.876046,1.1906956,72.0
-7.305403,-11.527911,1.2355024,81.0
-7.3423476,-10.70427,1.0683933,1.0
-4.63023,-10.49752,0.47331035,141.0
-5.102208,-10.518877,0.4193045,105.0
-5.5445766,-13.072744,1.104844,75.0
-5.5263734,-11.821405,0.9375311,103.0
-6.1442804,-11.552156,0.42494485,48.0
-6.715474,-11.591759,0.35244265,100.0
-5.9446774,-11.580753,0.8620705,83.0
-6.5203533,-11.633366,0.80376714,95.0
-7.0862827,-11.223926,0.2837735,40.0
-7.422318,-10.883357,0.19130836,49.0
-6.841251,-11.196913,0.7184719,93.0
-7.116652,-10.758004,0.6303896,65.0
-4.5883956,-10.500905,-0.30792075,170.0
-5.0444508,-10.485835,-0.37942106,69.0
-4.4336257,-10.507589,0.071390286,168.0
-4.86478,-10.488878,0.009296278,116.0
-5.5611014,-10.51714,-0.4323859,89.0
-5.371477,-10.514268,-0.031878244,55.0
-6.6955013,-12.030074,-0.106250994,103.0
-7.393426,-12.13231,-0.18508771,43.0
-7.273165,-11.010603,-0.24291384,52.0
-5.5518665,-10.532871,1.2003736,32.0
-6.1618567,-10.734683,1.1686391,72.0
-7.3496084,-11.761072,1.2577407,51.0
-7.337592,-10.842452,1.0787617,93.0
-5.024788,-10.527309,0.4180665,104.0
-5.380605,-12.910425,1.0861796,71.0
-5.4503174,-11.852276,0.93720245,103.0
-6.1094775,-11.663162,0.42846936,76.0
-6.6206484,-11.595573,0.35083312,107.0
-5.852069,-11.578691,0.8586992,64.0
-6.4268208,-11.637461,0.80080795,109.0
-6.910228,-11.09837,0.277423,33.0
-7.352671,-10.928121,0.1912584,75.0
-6.8169866,-11.316677,0.7243349,42.0
-7.0543857,-10.810859,0.6309843,141.0
-4.516039,-10.514816,-0.30768335,168.0
-4.9707394,-10.50107,-0.37904748,79.0
-4.354555,-10.503813,0.070766546,165.0
-4.794615,-10.510147,0.009169016,101.0
-5.4774227,-10.51815,-0.43144554,85.0
-5.290084,-10.51741,-0.0321834,74.0
-6.6072474,-12.049127,-0.10631066,77.0
-7.2738805,-11.163216,-0.24393292,94.0
-5.485577,-10.567547,1.2003736,28.0
-6.0275025,-10.655579,1.1543548,85.0
-7.2932715,-11.835845,1.2611465,58.0
-7.376828,-11.048828,1.096721,86.0
-4.938088,-10.51531,0.41578093,103.0
-4.906732,-11.980925,0.9951248,60.0
-5.365026,-11.862695,0.93506616,78.0
-6.024203,-11.678215,0.42735183,78.0
-6.536851,-11.617799,0.35002834,119.0
-5.7703476,-11.597364,0.8571668,109.0
-7.0406613,-11.468962,0.28961602,25.0
-7.3514657,-11.075615,0.19430616,139.0
-7.1462083,-12.035999,0.7756687,144.0
-6.999318,-10.875093,0.6324116,62.0
-4.439043,-10.517171,-0.30726787,170.0
-4.8258624,-10.363656,-0.37518728,176.0
-4.277209,-10.503166,0.07021618,163.0
-4.7145133,-10.50907,0.008736327,98.0
-5.393042,-10.516745,-0.43045565,47.0
-6.235931,-11.164565,-0.53713614,1.0
-5.207095,-10.516359,-0.032524455,87.0
-7.2577887,-11.292738,-0.24472909,70.0
-5.4416103,-10.646085,1.2059617,73.0
-6.050759,-10.854657,1.1738906,40.0
-6.825006,-11.231209,1.1846145,144.0
-7.153557,-10.862359,1.0708003,84.0
-4.8525786,-10.504452,0.4135906,129.0
-4.6410246,-11.536165,0.9502952,127.0
-5.3426843,-10.514148,0.36941212,178.0
-6.4646974,-11.660388,0.3501015,88.0
-5.693869,-11.626223,0.8565539,186.0
-5.661017,-10.566499,0.70850945,110.0
-7.4103737,-12.245578,0.3167963,1.0
-7.1873236,-10.977876,0.19000931,43.0
-6.1855283,-10.563632,0.6610145,124.0
-6.9136887,-10.891915,0.63050854,117.0
-4.573477,-11.031037,-0.31507286,131.0
-4.8149843,-10.511843,-0.37788528,138.0
-4.6313734,-10.500091,0.008201829,99.0
-5.306202,-10.509336,-0.42931733,97.0
-5.122583,-10.511084,-0.032901414,75.0
-4.326112,-10.462512,1.2429057,44.0
-4.860738,-10.730342,1.2324615,12.0
-5.442282,-10.815106,1.2229496,70.0
-5.9104137,-10.76183,1.158136,58.0
-6.8287683,-11.398598,1.1992399,45.0
-7.450542,-11.46764,1.1330101,57.0
-4.7773566,-10.514743,0.41254306,83.0
-4.5392914,-11.490928,0.94331783,73.0
-5.2711716,-10.5367775,0.36889634,106.0
-6.364404,-11.651704,0.34805298,55.0
-5.665582,-11.755249,0.8645223,107.0
-6.0979786,-11.552038,0.784462,146.0
-7.33533,-12.295333,0.31692332,55.0
-7.458512,-11.548007,0.20564789,124.0
-6.0991387,-10.567684,0.6584087,94.0
-6.8737903,-10.980785,0.63372,58.0
-4.5517287,-10.497815,0.0077691395,98.0
-5.043514,-10.51599,-0.033170667,90.0
-5.5112543,-10.521809,-0.11058823,1.0
-4.2722807,-10.471745,1.2414519,85.0
-4.728687,-10.571926,1.2093366,1.0
-6.6846952,-10.659271,-0.23802541,1.0
-5.4203634,-10.899407,1.2303259,122.0
-6.843794,-11.547162,1.2128633,162.0
-7.133008,-11.094312,1.087834,47.0
-5.239966,-12.921785,0.60495,69.0
-4.7137976,-10.506178,0.41092414,156.0
-4.0630474,-10.423608,0.8410993,75.0
-5.3392105,-12.368762,0.97236925,48.0
-5.2091055,-10.536402,0.36769283,103.0
-5.636614,-11.837672,0.86927265,125.0
-6.0443993,-11.582413,0.7846029,74.0
-6.7745514,-11.4751835,0.28542465,141.0
-7.061866,-11.049507,0.18980946,48.0
-6.024608,-10.5529375,0.6551515,116.0
-6.8525343,-11.062226,0.63716936,105.0
-4.664845,-10.487477,-0.37614197,161.0
-4.03185,-10.411288,0.06698737,34.0
-4.488776,-10.487917,0.0073364507,100.0
-5.151679,-10.488016,-0.4271396,35.0
-4.96916,-10.4871855,-0.033691227,76.0
-5.4145546,-10.457167,-0.110822305,175.0
-4.1931696,-10.465186,1.2370906,53.0
-4.6886644,-10.661393,1.2169678,62.0
-5.2794967,-10.7849655,1.2117734,114.0
-5.6627936,-10.586117,1.1293573,1.0
-7.058884,-11.13219,1.0870934,46.0
-5.036469,-12.646268,0.5872845,158.0
-4.63474,-10.506367,0.40940043,80.0
-3.9492946,-10.322306,0.82923776,186.0
-5.4637256,-12.87701,1.0149308,43.0
-5.1210217,-10.523968,0.36554375,135.0
-6.144583,-11.549964,0.34095633,147.0
-5.5545363,-11.85659,0.8678935,133.0
-5.9559574,-11.590021,0.78220737,117.0
-6.7384176,-11.579776,0.28771085,56.0
-7.0639057,-11.206875,0.193157,31.0
-5.9445243,-10.566208,0.65332747,89.0
-6.8287992,-11.179958,0.6424029,112.0
-4.598054,-10.51475,-0.37610045,135.0
-3.9097953,-10.286775,0.0640521,162.0
-4.414226,-10.495651,0.007056475,105.0
-5.0796103,-10.507566,-0.42679316,75.0
-6.603115,-12.500593,-0.5792606,1.0
-4.897277,-10.505502,-0.033816878,87.0
-5.365151,-10.523025,-0.11073969,107.0
-4.0549865,-10.30645,1.2128608,140.0
-4.6207933,-10.68882,1.2167366,75.0
-6.8098474,-12.140061,-0.18413009,1.0
-7.398943,-12.129291,-0.250971,111.0
-5.671505,-10.763891,1.1463724,88.0
-6.238613,-10.831395,1.119903,82.0
-7.438637,-11.893228,1.1657815,57.0
-4.5534725,-10.500483,0.40759104,163.0
-3.9094453,-10.414111,0.8355174,140.0
-5.391946,-12.933149,1.0169029,118.0
-5.0453386,-10.536096,0.36459813,105.0
-6.1267834,-11.692709,0.34527287,115.0
-5.468285,-11.865883,0.86574817,125.0
-5.872176,-11.605869,0.7805164,99.0
-6.644697,-11.58544,0.28637725,74.0
-7.1002183,-11.422379,0.19820333,93.0
-6.3690457,-11.492629,0.7196445,59.0
-6.801789,-11.294409,0.64739853,44.0
-4.054923,-10.467675,-0.3044486,25.0
-4.5152473,-10.504883,-0.3752288,132.0
-3.8770652,-10.397384,0.06573988,123.0
-4.335154,-10.491782,0.0066237864,98.0
-4.996375,-10.503135,-0.4258033,79.0
-6.489288,-12.474496,-0.57688916,169.0
-4.8120737,-10.494219,-0.034229737,79.0
-5.2701178,-10.499377,-0.11088656,48.0
-4.012928,-10.391029,1.2206144,167.0
-4.548863,-10.70668,1.2153491,85.0
-6.67747,-12.081003,-0.18374439,141.0
-5.6690125,-10.924549,1.161287,53.0
-6.2948337,-11.090365,1.1453469,62.0
-7.435015,-12.054886,1.1783715,58.0
-3.964799,-10.320537,0.45106888,183.0
-4.4795413,-10.510522,0.4066387,102.0
-3.836399,-10.41789,0.8335986,131.0
-4.962918,-10.533216,0.3629648,99.0
-5.430878,-10.529482,0.2957427,146.0
-5.3878794,-11.887284,0.8646755,130.0
-5.797354,-11.6389675,0.7802346,98.0
-6.5600014,-11.60606,0.28561518,60.0
-7.020978,-11.4548435,0.19785358,47.0
-6.359654,-11.648127,0.7282435,39.0
-6.927907,-11.667943,0.6703546,103.0
-3.9466386,-10.380714,-0.30266798,1.0
-4.4397783,-10.510959,-0.3747307,133.0
-3.8055096,-10.404625,0.06540966,111.0
-4.2600822,-10.4965925,0.0063183587,61.0
-4.91593,-10.50351,-0.4249619,87.0
-5.3816695,-10.513149,-0.5066193,82.0
-4.73212,-10.493229,-0.03453489,77.0
-5.1782618,-10.4803295,-0.11101966,48.0
-3.9433596,-10.404892,1.2191606,106.0
-4.467668,-10.702075,1.2111866,73.0
-5.5721145,-10.905094,1.1547749,95.0
-6.1301026,-10.959346,1.125713,61.0
-7.0147886,-11.536962,1.1169022,110.0
-3.9244118,-10.410697,0.45479354,173.0
-4.396364,-10.4979515,0.40454364,135.0
-3.7196953,-10.299276,0.82034165,113.0
-4.6377625,-11.536138,0.8867529,124.0
-4.878221,-10.524276,0.3610736,133.0
-5.3491755,-10.533129,0.29449892,164.0
-5.7153,-11.657264,0.7788254,103.0
-6.4772496,-11.629569,0.28498012,53.0
-5.673612,-10.544444,0.64355576,69.0
-6.142678,-10.499292,0.58661836,178.0
-3.8583865,-10.343433,-0.30168867,182.0
-3.6950629,-10.302135,0.06295137,95.0
-4.83651,-10.505109,-0.42417002,81.0
-5.2956467,-10.507517,-0.50524634,165.0
-4.6515617,-10.4898205,-0.034858,76.0
-5.1061654,-10.500078,-0.11105179,86.0
-3.868956,-10.405256,1.2160107,119.0
-4.3973093,-10.722589,1.2102617,72.0
-5.4900346,-10.91326,1.151624,57.0
-6.013239,-10.910428,1.1156957,89.0
-7.2665224,-12.120059,1.1754092,36.0
-3.8492725,-10.408907,0.45330366,174.0
-3.6509411,-10.311168,0.81929505,132.0
-4.5402017,-11.502053,0.8811656,47.0
-4.8037424,-10.536523,0.36021397,98.0
-5.2649517,-10.5308075,0.29303572,159.0
-5.3664722,-12.248312,0.8893469,96.0
-5.634115,-11.6767845,0.7775572,82.0
-6.410764,-11.682315,0.28542465,58.0
-7.3155766,-12.276654,0.21923797,62.0
-6.0944695,-11.50297,0.71169686,164.0
-6.0785885,-10.541137,0.58685625,97.0
-3.8090458,-10.410695,-0.30237123,118.0
-3.6117868,-10.272293,0.06192402,131.0
-4.7523365,-10.495188,-0.42308116,77.0
-5.219715,-10.520902,-0.5045599,104.0
-4.5752134,-10.494988,-0.03509135,91.0
-5.020162,-10.490496,-0.11115735,95.0
-3.773724,-10.34724,1.2053497,115.0
-4.3209057,-10.727908,1.2074867,78.0
-5.5671678,-10.530577,-0.17745335,1.0
-5.365563,-10.835343,1.1383901,67.0
-6.9860682,-11.821183,1.1381943,48.0
-3.7722785,-10.400949,0.45149454,171.0
-5.2632055,-13.012192,0.53110623,51.0
-3.5730886,-10.296234,0.8158063,138.0
-4.035351,-10.419628,0.7828958,51.0
-4.7162743,-10.519054,0.3579789,126.0
-5.176541,-10.518887,0.2912067,152.0
-5.3035564,-12.314776,0.89210516,83.0
-5.6018443,-11.798396,0.78432107,153.0
-5.6793485,-10.5009775,0.24135195,27.0
-7.162162,-12.193189,0.2154907,35.0
-6.0570526,-11.608326,0.71664786,102.0
-5.982557,-10.527099,0.5832879,123.0
-3.7341526,-10.408053,-0.30195576,112.0
-3.542638,-10.281542,0.061667185,102.0
-4.010336,-10.442567,0.0045112455,64.0
-4.670909,-10.490109,-0.42214078,89.0
-5.135902,-10.517595,-0.50331175,103.0
-4.496631,-10.494094,-0.035378557,83.0
-4.936192,-10.483864,-0.11125374,173.0
-3.6948636,-10.280781,1.1944463,113.0
-4.2680936,-10.742617,1.206793,85.0
-5.475007,-10.475087,-0.17714745,191.0
-4.792226,-10.756057,1.1856209,74.0
-5.267951,-10.765901,1.1272568,106.0
-5.7671604,-10.740748,1.0888494,1.0
-6.6773686,-11.422837,1.0917221,68.0
-3.675751,-10.284993,0.44393885,161.0
-5.119351,-12.83101,0.5205356,36.0
-3.518762,-10.2959795,0.8142364,112.0
-3.9576259,-10.364097,0.7763226,143.0
-4.6585956,-10.522878,0.35711926,71.0
-5.1155114,-10.519817,0.29025558,157.0
-5.2703404,-12.398396,0.89700884,88.0
-5.5495834,-11.831882,0.7848847,86.0
-6.933435,-11.933167,0.2069969,135.0
-5.989513,-11.611889,0.7148238,106.0
-5.9112973,-10.516922,0.58067113,71.0
-3.6379933,-10.291579,-0.2998487,101.0
-3.4820077,-10.26212,0.060970057,129.0
-3.939024,-10.403411,0.0037222242,124.0
-4.6118064,-10.490024,-0.42154688,75.0
-4.43239,-10.480144,-0.035719614,82.0
-4.88758,-10.508821,-0.11124915,112.0
-3.6249452,-10.288803,1.192508,117.0
-4.046055,-10.375276,1.1575372,135.0
-5.4273267,-10.544878,-0.17728046,167.0
-4.7166066,-10.767736,1.1833857,83.0
-6.057535,-11.456373,1.1661828,1.0
-6.5087743,-11.297341,1.0737627,113.0
-3.5985773,-10.27205,0.44191688,154.0
-5.029123,-12.838755,0.51929754,49.0
-3.479159,-10.393505,0.8212138,133.0
-3.8931315,-10.390624,0.77648693,79.0
-4.566974,-10.493266,0.35436842,165.0
-5.030264,-10.51212,0.28864604,162.0
-5.2099485,-12.473614,0.90053326,78.0
-5.45836,-11.830314,0.78206646,128.0
-6.18939,-11.755931,0.28415456,1.0
-6.7397823,-11.770202,0.20105125,41.0
-5.902921,-11.62258,0.71286947,65.0
-6.4311104,-11.607751,0.6525131,165.0
-3.561538,-10.2802,-0.29931453,140.0
-4.0450068,-10.435687,-0.37020636,1.0
-3.4494402,-10.380634,0.062841296,109.0
-3.8588843,-10.388614,0.003187726,76.0
-4.531587,-10.485731,-0.420656,92.0
-4.9769225,-10.483213,-0.5001914,76.0
-4.356521,-10.48376,-0.035952967,80.0
-4.8064213,-10.506612,-0.11133176,108.0
-3.5466948,-10.271943,1.1874197,114.0
-3.9665155,-10.363413,1.1529123,54.0
-5.3384395,-10.534132,-0.1771142,38.0
-6.772219,-12.241494,-0.24923535,1.0
-4.645727,-10.789851,1.1824915,90.0
-5.7810955,-11.100297,1.1215057,54.0
-6.5845723,-11.595814,1.1013498,98.0
-3.530096,-10.283116,0.4412784,147.0
-3.9969375,-10.406426,0.39340153,134.0
-3.4131694,-10.413265,0.8210394,89.0
-3.8194766,-10.392445,0.774515,89.0
-4.4970403,-10.512562,0.3539386,69.0
-4.946171,-10.505577,0.28710964,160.0
-4.9157705,-11.9781475,0.85670716,43.0
-5.3864026,-11.8698225,0.7824892,79.0
-6.0998077,-11.764395,0.28307498,42.0
-5.2380958,-10.471456,0.6262274,199.0
-3.491762,-10.287215,-0.2990771,105.0
-3.9479272,-10.37872,-0.36838,1.0
-3.3798432,-10.388783,0.06258446,91.0
-3.7859669,-10.391999,0.0029077507,84.0
-4.454717,-10.488214,-0.4199631,86.0
-4.8973703,-10.485321,-0.49919292,67.0
-4.2837915,-10.494248,-0.03611452,81.0
-4.7312503,-10.516557,-0.111382246,99.0
-3.501063,-10.350478,1.1946886,92.0
-3.8900928,-10.358395,1.1492122,82.0
-5.234776,-10.492237,-0.1768349,167.0
-5.6990376,-10.462479,-0.23270705,46.0
-4.560872,-10.778531,1.177574,67.0
-5.7239094,-11.161211,1.1243106,81.0
-6.3799486,-11.402548,1.0763547,36.0
-3.4761777,-10.337295,0.4430875,111.0
-3.923686,-10.410786,0.39235398,75.0
-3.7031586,-10.275694,0.76219016,79.0
-4.4077682,-10.485308,0.3513597,177.0
-4.868261,-10.511077,0.2860854,157.0
-4.6740737,-11.594241,0.82238173,101.0
-5.404997,-10.581977,0.23957379,149.0
-5.1862545,-10.532833,0.628312,176.0
-5.65892,-10.528085,0.5740103,116.0
-3.4490125,-10.375411,-0.3001158,91.0
-3.8446987,-10.30223,-0.3661386,172.0
-3.6665018,-10.2650175,0.00087156676,75.0
-4.3695617,-10.469833,-0.41872576,31.0
-4.823015,-10.497735,-0.49856883,98.0
-4.6423354,-10.494904,-0.11151076,139.0
-3.4409266,-10.387358,1.196627,140.0
-3.8166509,-10.360278,1.1464373,104.0
-5.166113,-10.51953,-0.17681494,87.0
-4.4915395,-10.803302,1.177127,99.0
-5.693901,-11.276956,1.1333262,85.0
-6.400737,-11.609684,1.094129,124.0
-3.4210963,-10.389302,0.44479018,162.0
-3.8491454,-10.410891,0.391116,124.0
-3.6311796,-10.278099,0.7603825,96.0
-4.3433194,-10.516492,0.35153162,100.0
-4.785487,-10.505111,0.28462216,156.0
-4.5565453,-11.510205,0.81303424,145.0
-5.3695407,-12.237809,0.80573994,29.0
-5.2882805,-10.515633,0.2360175,103.0
-6.542743,-11.94245,0.20240027,1.0
-5.6550536,-11.674256,0.70870024,66.0
-6.124962,-11.564725,0.64157027,170.0
-3.3825235,-10.393072,-0.30005643,145.0
-3.8082156,-10.403117,-0.3678404,87.0
-3.2135618,-10.315818,0.060383,83.0
-3.5999398,-10.282194,0.00079520984,96.0
-4.741261,-10.493247,-0.49738312,61.0
-4.5666933,-10.501872,-0.111565836,109.0
-3.3835094,-10.433337,1.1997769,38.0
-3.699919,-10.24215,1.1288624,85.0
-5.0765014,-10.503123,-0.17663538,194.0
-5.5464897,-10.494403,-0.23235674,1.0
-4.4078593,-10.792644,1.1724329,56.0
-4.8598886,-10.777498,1.1100316,88.0
-5.6379423,-11.342826,1.136732,100.0
-3.3667166,-10.444828,0.44670573,53.0
-3.7788653,-10.421732,0.39044937,68.0
-3.2343073,-10.534825,0.82644683,1.0
-3.5593166,-10.280005,0.75857484,105.0
-4.262201,-10.5065155,0.34981233,137.0
-4.7095437,-10.513101,0.28374422,156.0
-5.3068147,-12.304258,0.8082764,25.0
-5.206197,-10.516377,0.2348744,96.0
-5.63209,-11.815928,0.7163873,180.0
-6.053104,-11.604749,0.64168924,94.0
-3.728517,-10.387343,-0.36696875,134.0
-3.5280867,-10.283815,0.0005152346,82.0
-4.660569,-10.489973,-0.4962598,131.0
-4.493515,-10.513819,-0.11160714,109.0
-3.6435773,-10.237028,1.1260874,97.0
-5.0269504,-10.526929,-0.17663538,117.0
-5.480249,-10.488545,-0.23207013,78.0
-4.357691,-10.81514,1.1726565,93.0
-4.794428,-10.7676,1.1062505,98.0
-5.657007,-11.517632,1.1533607,157.0
-3.6722884,-10.279621,0.38235468,117.0
-3.2481463,-10.761786,0.84580904,1.0
-3.5004854,-10.266499,0.75594556,70.0
-4.2067304,-10.511632,0.3491246,67.0
-4.644527,-10.500475,0.28235418,154.0
-3.9479918,-10.296326,0.70913863,178.0
-5.2636743,-12.363983,0.81095374,37.0
-5.1382003,-10.503055,0.23354079,114.0
-6.301539,-11.809216,0.19660449,50.0
-5.575499,-11.840531,0.716257,100.0
-5.980914,-11.599457,0.6394293,119.0
-3.2234638,-10.28643,-0.29783067,116.0
-3.6346273,-10.278575,-0.36418775,77.0
-3.227075,-10.777946,0.068565086,1.0
-3.4680018,-10.266245,5.7093202e-05,69.0
-4.590928,-10.466088,-0.49469963,47.0
-3.9340248,-10.324827,-0.038681418,1.0
-4.4236245,-10.487002,-0.11172647,110.0
-3.2862296,-10.5267935,1.2070458,15.0
-3.5712903,-10.237226,1.1233125,90.0
-5.358238,-10.414389,-0.23109882,182.0
-4.2780046,-10.8127165,1.1690801,71.0
-4.7066603,-10.751996,1.1009989,71.0
-6.086189,-11.505722,1.0717261,1.0
-3.2593155,-10.506026,0.44808918,29.0
-3.5996628,-10.279881,0.3812119,80.0
-3.235928,-10.971269,0.86307806,1.0
-3.4670222,-10.380871,0.7639978,119.0
-5.023663,-12.79717,0.45348486,68.0
-4.5688567,-10.507472,0.28147623,152.0
-3.920256,-10.419915,0.7172603,194.0
-5.2052035,-12.442795,0.8144766,27.0
-5.0574183,-10.504486,0.2324612,91.0
-6.3083735,-12.002428,0.20095132,149.0
-5.491797,-11.855394,0.7148238,114.0
-5.32772,-10.498396,0.5633054,146.0
-3.5600996,-10.272887,-0.36356512,129.0
-3.1933334,-10.915143,0.07080323,1.0
-3.4369078,-10.388397,0.0014060651,109.0
-4.486929,-10.406683,-0.4917041,168.0
-3.8871934,-10.398081,-0.03821471,58.0
-4.353801,-10.505358,-0.11174942,108.0
-3.2730317,-10.722017,1.2293371,1.0
-3.4991448,-10.236919,1.1205375,68.0
-4.826562,-10.442096,-0.17609672,168.0
-5.323531,-10.508455,-0.2316402,141.0
-4.0115623,-10.325853,1.1071635,169.0
-4.632697,-10.766751,1.0993184,101.0
-5.9657893,-11.451971,1.0620984,115.0
-3.2572021,-10.738556,0.45990163,1.0
-3.5252233,-10.27397,0.37978345,112.0
-3.5002449,-12.155992,0.9691341,1.0
-3.4079597,-10.421383,0.7656411,45.0
-4.017053,-10.414417,0.34224752,111.0
-4.485395,-10.495569,0.27986667,147.0
-3.841655,-10.408772,0.71434873,184.0
-5.204556,-12.663356,0.8288498,46.0
-4.969148,-10.489047,0.23081006,115.0
-5.4281726,-10.492915,0.15733317,207.0
-5.4122515,-11.878762,0.71404207,99.0
-5.236582,-10.4817,0.55997497,112.0
-3.1920507,-10.6558,-0.30293506,44.0
-3.4922512,-10.285592,-0.36335757,79.0
-3.4631941,-12.127676,0.09355163,1.0
-3.3703287,-10.405984,0.0013551604,50.0
-3.981212,-10.40123,-0.41357845,1.0
-4.4465165,-10.493525,-0.49370113,120.0
-3.8067124,-10.380963,-0.038609616,73.0
-3.2473521,-10.883223,1.247267,1.0
-3.4658346,-10.350951,1.1318686,118.0
-4.7831187,-10.521414,-0.17627628,164.0
-5.2332172,-10.493416,-0.23121028,81.0
-3.971267,-10.415897,1.114987,77.0
-4.554845,-10.77185,1.0965877,71.0
-5.8964524,-11.494541,1.0626538,80.0
-3.2596276,-10.99637,0.4730975,1.0
-3.4759612,-10.341334,0.382069,70.0
-3.468836,-12.33893,0.9837866,146.0
-3.9374597,-10.402051,0.34052822,139.0
-4.4092584,-10.499607,0.27891558,142.0
-3.7444425,-10.344518,0.7071465,162.0
-4.672922,-11.580933,0.74387884,34.0
-4.894733,-10.501928,0.230175,91.0
-5.360316,-10.523253,0.15723324,188.0
-5.3301897,-11.896131,0.71286947,42.0
-5.1688523,-10.510816,0.5597371,152.0
-3.1579754,-10.788941,-0.304686,47.0
-3.4491298,-10.371803,-0.36476883,122.0
-3.4333735,-12.316853,0.09674374,122.0
-3.8989913,-10.381086,-0.4123906,82.0
-3.7292933,-10.370779,-0.038932722,70.0
-3.466082,-11.895003,1.3732615,146.0
-3.4013522,-10.37441,1.1320999,53.0
-4.702282,-10.518368,-0.17615658,159.0
-5.1433034,-10.477658,-0.23078035,50.0
-3.8884199,-10.394075,1.1093988,165.0
-4.4809437,-10.785572,1.094907,99.0
-5.8106055,-11.50472,1.0598766,77.0
-3.4693112,-11.985891,0.52683884,115.0
-3.4153132,-10.3762455,0.3827356,132.0
-3.4614701,-12.618057,1.0071608,68.0
-3.2551637,-10.394947,0.75972515,8.0
-3.8685634,-10.417213,0.3400984,78.0
-4.331717,-10.49941,0.27781817,146.0
-3.6588054,-10.309545,0.70239615,176.0
-4.555053,-11.496999,0.7352831,132.0
-4.8128834,-10.497922,0.2289684,113.0
-5.2815,-10.531726,0.15653375,183.0
-5.0791416,-10.494605,0.5565256,178.0
-3.4489944,-12.072465,-0.3241836,128.0
-3.3801587,-10.381869,-0.3645198,109.0
-3.4185283,-12.569829,0.10114666,81.0
-3.2250016,-10.401697,0.00074430526,1.0
-3.8192453,-10.365954,-0.41135123,52.0
-3.6210663,-10.271326,-0.04009949,66.0
-3.4836614,-12.243216,1.4146942,66.0
-4.6224747,-10.516556,-0.17604353,163.0
-5.0511756,-10.45579,-0.23030265,166.0
-3.820992,-10.412701,1.1087283,103.0
-4.4002576,-10.78223,1.091336,81.0
-4.912949,-10.847897,1.0604004,86.0
-5.728421,-11.521402,1.05784,78.0
-3.4538834,-12.220879,0.5386513,119.0
-3.4425385,-12.866762,1.027744,94.0
-3.2461624,-10.598052,0.77550095,1.0
-3.7880654,-10.399982,0.3382072,121.0
-4.258123,-10.50791,0.27708656,138.0
-3.584834,-10.305945,0.7002508,166.0
-4.7370076,-10.50607,0.22820634,89.0
-5.195685,-10.525294,0.15543455,179.0
-5.000179,-10.499296,0.55474144,163.0
-3.4361002,-12.321299,-0.32768545,92.0
-3.4067526,-12.846299,0.105989866,86.0
-3.756743,-10.397274,-0.4115492,75.0
-3.5493135,-10.273068,-0.040296946,62.0
-3.4859602,-12.475649,1.4420738,75.0
-3.2720351,-10.36385,1.1263187,8.0
-4.561765,-10.512516,-0.17595042,164.0
-5.0113587,-10.499313,-0.23047781,105.0
-3.7194307,-10.284711,1.0912933,128.0
-4.3419385,-10.7844095,1.0892354,118.0
-4.8682494,-10.885471,1.0620031,75.0
-5.6590877,-11.517908,1.0546924,95.0
-3.4626334,-12.477678,0.5519536,83.0
-3.2579033,-10.278043,0.37597418,35.0
-3.4427223,-13.116113,1.0488507,60.0
-3.2366633,-10.7467575,0.7870041,1.0
-3.692007,-10.285982,0.3321897,83.0
-4.19589,-10.496331,0.27584282,136.0
-3.531087,-10.307622,0.6990249,170.0
-3.953398,-10.31404,0.6419982,159.0
-4.6704397,-10.489896,0.22687273,114.0
-5.130194,-10.517343,0.1545352,183.0
-4.934438,-10.488446,0.55248153,190.0
-3.4415295,-12.570838,-0.33127633,109.0
-3.2248898,-10.288738,-0.3616973,125.0
-3.4112437,-13.113893,0.11075969,78.0
-3.6576734,-10.2735,-0.4078372,67.0
-3.495098,-10.27263,-0.0404585,118.0
-3.9177787,-10.314847,-0.112525076,156.0
-3.472928,-12.738743,1.4726032,96.0
-4.4839034,-10.513355,-0.17585067,166.0
-3.6481302,-10.289133,1.089058,94.0
-4.268217,-10.796691,1.0875549,67.0
-4.7686415,-10.8447485,1.0541897,71.0
-5.6909785,-11.768209,1.0769103,107.0
-3.4479926,-12.736403,0.5650431,100.0
-3.1980226,-10.313565,0.37673604,27.0
-3.435829,-13.434855,1.0757135,118.0
-3.620049,-10.28823,0.3312441,107.0
-5.042396,-12.835307,0.36685544,87.0
-3.4902258,-10.401489,0.704848,177.0
-3.9153342,-10.409585,0.64735293,101.0
-4.5932612,-10.493377,0.22598365,90.0
-5.0475116,-10.515151,0.1535859,188.0
-4.8566566,-10.493898,0.5508163,171.0
-3.4312065,-12.85122,-0.33525303,84.0
-3.3976343,-13.408483,0.11593312,80.0
-3.583878,-10.269834,-0.4071443,76.0
-3.4556332,-10.370328,-0.039740484,40.0
-3.8746486,-10.397316,-0.11238279,76.0
-3.4617965,-13.021349,1.5055556,86.0
-4.4069815,-10.515477,-0.17575757,167.0
-4.831882,-10.4598675,-0.22958611,79.0
-3.5691345,-10.270523,1.0841405,125.0
-4.0239263,-10.371178,1.0362996,153.0
-4.690185,-10.850733,1.0515852,96.0
-5.6057644,-11.7803755,1.0745033,85.0
-3.4353023,-13.014745,0.57919675,87.0
-3.2533102,-10.727057,0.39635372,1.0
-3.4174044,-13.723073,1.0997854,82.0
-3.5198245,-12.232125,0.91107386,1.0
-3.544322,-10.278638,0.32978272,108.0
-4.0088,-10.406584,0.27028257,129.0
-3.4179943,-10.402362,0.7031624,170.0
-3.8345835,-10.392831,0.6442528,114.0
-4.5099297,-10.481602,0.22458653,115.0
-4.963346,-10.508723,0.15253666,181.0
-5.3801184,-13.041199,0.7828346,37.0
-5.3951006,-11.845965,0.63740724,103.0
-3.4159908,-13.126151,-0.33914068,93.0
-3.3837879,-13.717005,0.12136338,89.0
-3.4157133,-11.999359,0.020927979,1.0
-3.512847,-10.273218,-0.40664938,69.0
-3.9886591,-10.44946,-0.48708603,1.0
-3.3867059,-10.380421,-0.039848186,64.0
-3.7995837,-10.395176,-0.11244705,122.0
-3.451209,-13.319689,1.5404464,79.0
-4.3370337,-10.533706,-0.17572433,64.0
-4.7320156,-10.415427,-0.22893326,181.0
-3.5045328,-10.292746,1.0841405,67.0
-3.9650836,-10.412972,1.0381902,59.0
-4.615717,-10.865325,1.0499824,70.0
-5.5299416,-11.81176,1.074133,99.0
-3.4207318,-13.299225,0.59366965,95.0
-3.2286897,-10.890861,0.4034961,1.0
-3.4010892,-14.034823,1.1259506,77.0
-3.4683828,-12.344149,0.9187974,89.0
-3.4834855,-10.31207,0.3302985,68.0
-3.9341033,-10.407279,0.26933146,100.0
-3.7378244,-10.330481,0.6377708,78.0
-4.4362307,-10.491306,0.22395147,90.0
-4.8862267,-10.516149,0.15188713,184.0
-5.2189074,-12.878567,0.76902395,47.0
-5.3090997,-11.854139,0.63574207,59.0
-3.400385,-13.413022,-0.34320638,116.0
-3.1989396,-10.91923,-0.37406656,1.0
-3.3689795,-14.03754,0.12701379,67.0
-3.4323466,-12.349922,0.025280321,63.0
-3.4457037,-10.287498,-0.4064514,51.0
-3.888403,-10.3826475,-0.4840281,155.0
-3.7009604,-10.326652,-0.11267194,79.0
-3.451014,-13.674241,1.5823637,39.0
-3.4542093,-11.970961,1.3115482,1.0
-4.682042,-10.47962,-0.2292358,117.0
-3.4591749,-10.373046,1.0910698,165.0
-3.879294,-10.383686,1.0320984,122.0
-4.5336165,-10.8610325,1.0463762,95.0
-5.4506025,-11.835427,1.0730221,86.0
-3.4036844,-13.587901,0.6083554,91.0
-3.4778268,-12.000281,0.45758757,1.0
-3.385532,-14.366298,1.1538601,82.0
-3.4543724,-12.59627,0.9385171,78.0
-3.4348495,-10.383107,0.33253357,134.0
-3.8546674,-10.394339,0.26786822,143.0
-3.6433423,-10.271087,0.6315706,125.0
-4.356479,-10.48572,0.22280839,111.0
-4.8058734,-10.515753,0.15103775,179.0
-4.5850163,-11.515843,0.67104673,148.0
-3.387499,-13.725454,-0.3476579,91.0
-3.4540906,-12.063148,-0.39834857,138.0
-3.3525321,-14.36816,0.13284765,85.0
-3.4231212,-12.622053,0.02858912,79.0
-3.4002028,-10.367876,-0.4079857,122.0
-3.8237832,-10.40875,-0.4840905,75.0
-3.220429,-10.307556,-0.04092521,1.0
-3.6093473,-10.274273,-0.11285553,124.0
-3.4903884,-12.311873,1.3508604,74.0
-4.6285543,-10.492425,-0.22915618,133.0
-3.4262795,-10.438358,1.0968814,59.0
-3.826175,-10.39066,1.030838,89.0
-4.5518174,-11.051674,1.064808,85.0
-5.3765683,-11.82113,1.0689489,89.0
-3.407302,-13.8812475,0.62357324,79.0
-3.4823065,-12.229711,0.46815825,115.0
-3.3943665,-14.716117,1.1838628,84.0
-3.460633,-12.854822,0.95922273,86.0
-3.4080253,-10.467619,0.33562827,44.0
-3.7987473,-10.393628,0.2671366,107.0
-3.2699895,-10.564697,0.71159047,12.0
-3.5889463,-10.271202,0.63030237,66.0
-4.298714,-10.485772,0.22210982,92.0
-4.741403,-10.505507,0.15013841,187.0
-4.520528,-11.511298,0.6692227,69.0
-3.3914642,-14.027097,-0.35202035,98.0
-3.4560099,-12.287084,-0.4028314,83.0
-3.3564732,-14.699713,0.13879159,69.0
-3.4267206,-12.873718,0.0316943,79.0
-3.3500867,-10.379976,-0.4078867,31.0
-3.7534893,-10.3684225,-0.48215592,114.0
-3.5503707,-10.260946,-0.112928964,83.0
-3.4785042,-12.568957,1.3793038,65.0
-4.4179406,-11.283536,-0.17813832,1.0
-4.5481567,-10.488298,-0.22886956,145.0
-3.7092116,-10.272417,1.0148733,106.0
-4.422096,-10.930531,1.0485799,171.0
-3.3947203,-14.217181,0.640813,78.0
-3.4602816,-12.447586,0.47787187,73.0
-3.37674,-15.073598,1.2140399,76.0
-3.4469829,-13.130696,0.9809144,89.0
-3.683892,-10.280033,0.26179585,86.0
-3.2592363,-10.770273,0.72645456,1.0
-3.513294,-10.261483,0.6279068,127.0
-4.2171364,-10.473605,0.22077622,115.0
-4.659017,-10.4985695,0.14913914,187.0
-4.0171146,-10.415861,0.5906585,177.0
-3.3801577,-14.377228,-0.35703573,87.0
-3.4468849,-12.555263,-0.40814438,98.0
-3.4144738,-13.158152,0.035155814,79.0
-3.64391,-10.267547,-0.47803706,96.0
-3.476791,-10.25655,-0.11299322,101.0
-3.468733,-12.845539,1.4100598,75.0
-4.020512,-10.457363,-0.17509921,1.0
-4.4719315,-10.492768,-0.22866257,146.0
-3.631251,-10.258046,1.010672,105.0
-4.531817,-11.409649,1.0974643,43.0
-5.550197,-12.618253,1.1431934,71.0
-3.3802934,-14.563222,0.6585849,89.0
-3.4488037,-12.713842,0.48996627,80.0
-3.360643,-15.45869,1.2466592,84.0
-3.606576,-10.267172,0.26040578,150.0
-3.2263522,-10.909161,0.73595536,1.0
-3.4793694,-10.374089,0.6346707,101.0
-4.577709,-10.492844,0.14818984,185.0
-3.9389365,-10.407275,0.5883133,118.0
-3.3605974,-14.710206,-0.361784,95.0
-3.42724,-12.796772,-0.41287625,99.0
-3.398785,-13.442928,0.038617324,77.0
-3.2105882,-10.392583,-0.4071443,1.0
-3.567441,-10.256276,-0.47691375,111.0
-3.2030559,-10.914619,-0.035755515,1.0
-3.4439652,-10.37304,-0.11276374,123.0
-3.4556208,-13.122484,1.4408158,71.0
-3.9146807,-10.375684,-0.17472015,176.0
-4.394278,-10.49301,-0.22842371,147.0
-3.2701473,-10.636039,1.1127517,1.0
-3.558206,-10.256247,1.0079411,107.0
-4.066276,-10.423119,0.9878753,50.0
-5.350266,-12.375218,1.1150508,27.0
-3.3625224,-14.9135275,0.67656964,80.0
-3.4346278,-12.982366,0.5021559,85.0
-3.3426962,-15.857809,1.2804995,77.0
-3.3985307,-13.638924,1.0205182,93.0
-3.5393784,-10.282076,0.26011312,90.0
-3.4624941,-11.991096,0.82084936,160.0
-3.4128668,-10.391957,0.63438886,110.0
-4.500613,-10.495692,0.14749035,184.0
-3.8686292,-10.418714,0.5874013,104.0
-3.343871,-15.07474,-0.3670071,87.0
-3.418413,-13.090737,-0.41872886,90.0
-3.2824585,-15.743322,0.15721045,1.0
-3.3834968,-13.743546,0.04228246,77.0
-3.4977417,-10.263361,-0.4764145,91.0
-3.4487658,-12.038604,-0.025452029,1.0
-3.3781,-10.392573,-0.11276833,64.0
-3.4396594,-13.401685,1.471803,71.0
-3.8528657,-10.40946,-0.1747534,105.0
-3.2550027,-10.829674,1.1330925,1.0
-3.49112,-10.270874,1.0071009,79.0
-3.9475918,-10.308988,0.97284937,177.0
-5.3200784,-12.520321,1.1263448,1.0
-3.3472705,-15.295397,0.69625705,86.0
-3.4197197,-13.260872,0.51482165,86.0
-3.325411,-16.284636,1.3167818,74.0
-3.4020853,-14.025989,1.0515766,55.0
-3.468283,-10.285184,0.25938153,83.0
-3.4720933,-12.316,0.845061,81.0
-3.9899406,-10.474588,0.21817249,1.0
-4.4205446,-10.490623,0.14659101,188.0
-3.792898,-10.414667,0.58544695,106.0
-5.2379518,-12.923926,0.692716,60.0
