x,y,z,intensity
-3.2520485,9.391462,1.6978673,1.0
-3.2456787,8.699082,2.0740447,37.0
-3.2390304,9.168495,1.6604425,1.0
-3.2382183,8.516408,2.0346277,13.0
-3.2515595,9.023864,1.6374382,1.0
-3.25127,8.392322,2.009383,1.0
-3.2487311,8.842483,1.607567,1.0
-3.2391298,8.208598,1.9695228,1.0
-3.1931014,9.459719,0.73574096,1.0
-3.2273762,8.659205,1.5763224,1.0
-3.1883276,9.377744,0.04387207,1.0
-3.2129302,8.032229,1.9301056,1.0
-3.209385,9.315233,0.7242283,1.0
-3.2366793,8.520975,1.5543482,1.0
-3.1957502,9.210278,0.04101017,48.0
-3.2130175,7.8891764,1.899989,88.0
-3.2126806,9.138991,0.70975024,51.0
-3.1972566,9.407287,-0.2853071,1.0
-3.230784,8.348092,1.5258504,1.0
-3.1958258,9.028026,0.03785475,70.0
-3.346666,8.070415,1.9495927,69.0
-3.2530394,9.210951,2.127384,86.0
-3.2109935,9.415352,1.0752362,1.0
-3.1832848,9.2809305,0.38477018,1.0
-3.2111843,8.9555855,0.6945745,93.0
-3.197626,9.218982,-0.28266588,93.0
-3.235202,8.2067585,1.5031896,1.0
-3.1971555,8.855538,0.034882784,42.0
-3.4163718,8.094105,1.960665,85.0
-3.220199,9.252597,1.0568216,50.0
-3.202376,9.149611,0.3784915,65.0
-3.2020066,8.757608,0.6780032,46.0
-3.1984427,9.038585,-0.28014335,48.0
-3.2305906,8.047437,1.4770951,1.0
-3.2393546,9.448023,1.6542149,1.0
-3.1957507,8.681522,0.031874124,28.0
-3.4748993,8.090383,1.9650939,85.0
-3.2506847,8.846495,2.0513282,41.0
-3.2201378,9.06954,1.0357418,95.0
-3.2084599,8.986471,0.37040368,65.0
-3.20727,8.604876,0.66561836,98.0
-3.1971207,8.858548,-0.27762085,94.0
-3.2705932,8.001471,1.4722884,1.0
-3.2481492,9.282193,1.6282156,1.0
-3.1937013,8.511621,0.028938847,66.0
-3.530374,8.079102,1.9677513,79.0
-3.2510374,8.677654,2.0163252,10.0
-3.2073274,8.901231,1.0158734,48.0
-3.1925983,8.811771,0.3613581,61.0
-3.1974614,8.457461,0.6532335,48.0
-3.1927211,9.4258585,0.68216103,1.0
-3.1807199,8.685774,-0.275128,47.0
-3.3552809,8.098718,1.4935758,51.0
-3.2281961,9.0864,1.595883,1.0
-3.178684,8.352696,0.026113642,68.0
-3.572374,8.071283,1.9699657,94.0
-3.1847527,9.314874,-0.012567247,1.0
-3.2339597,8.508778,1.9800258,17.0
-3.20534,8.724497,0.99552053,101.0
-3.1915116,8.639914,0.35273823,82.0
-3.1972244,8.299745,0.64032537,100.0
-3.2000856,9.254801,0.6690146,1.0
-3.1845746,8.530838,-0.27299127,91.0
-3.4176464,8.104682,1.498726,58.0
-3.2224371,8.891523,1.5645505,1.0
-3.1809258,8.204029,0.023581965,67.0
-3.6342816,8.073551,1.9761661,80.0
-3.1875458,9.134068,-0.014730692,1.0
-3.2375758,8.358891,1.949344,9.0
-3.2061634,8.561149,0.9768636,46.0
-3.200122,9.471998,1.0250322,1.0
-3.199012,8.496436,0.3457146,43.0
-3.1929376,8.136811,0.62689394,47.0
-3.1961982,9.057693,0.6535675,1.0
-3.182318,8.364998,-0.2706765,48.0
-3.4731889,8.093902,1.5007861,49.0
-3.1839187,9.35978,-0.34310183,1.0
-3.2204754,8.713746,1.5362179,1.0
-3.1821659,8.057528,0.02108698,74.0
-3.188195,8.953601,-0.016894137,1.0
-3.2251859,8.172936,1.9100198,18.0
-3.2036388,8.394434,0.9577222,60.0
-3.2093525,9.305115,1.0069948,1.0
-3.1962016,8.330853,0.33741397,51.0
-3.2024412,9.320246,0.33178678,28.0
-3.1926816,7.9890523,0.614858,71.0
-3.1939895,8.872268,0.6391064,1.0
-3.1817405,8.208843,-0.2685101,96.0
-3.529523,8.084546,1.5031896,57.0
-3.1859453,9.175134,-0.33949065,25.0
-3.2233212,8.55482,1.5112187,9.0
-3.1854453,7.9206057,0.01877545,139.0
-3.1853468,8.769731,-0.019108487,1.0
-3.2236218,8.02012,1.8784738,14.0
-3.206385,8.246581,0.9410037,107.0
-3.2120245,9.125368,0.9873387,1.0
-3.1899765,8.161931,0.3289005,90.0
-3.1971962,9.116944,0.3225493,1.0
-3.2163782,7.904307,0.6087528,152.0
-3.1936762,8.69847,0.6256313,1.0
-3.1822834,8.060465,-0.2664624,50.0
-3.5947182,8.09459,1.5093699,51.0
-3.185779,8.990839,-0.3358795,40.0
-3.2221909,8.39068,1.4852194,18.0
-3.2740197,7.994719,0.02064669,73.0
-3.1858401,8.601271,-0.02111922,1.0
-3.2813036,8.0177965,1.8827952,132.0
-3.2029896,8.087966,0.9228314,49.0
-3.2092295,8.936605,0.96652645,1.0
-3.1936448,8.023083,0.3220897,57.0
-3.203574,8.953614,0.31531173,1.0
-3.3442028,8.0715065,0.6265451,90.0
-3.1906128,8.523165,0.6119918,1.0
-3.1375673,7.8048964,-0.26269346,149.0
-3.655288,8.09337,1.51349,58.0
-3.1854522,8.81256,-0.33239284,25.0
-3.2191272,8.226898,1.45922,9.0
-3.3466268,8.027463,0.021710727,92.0
-3.1843443,8.433157,-0.023129951,1.0
-3.3771665,8.107086,1.9091555,72.0
-3.256746,9.370628,2.0874774,27.0
-3.2016373,7.97523,0.9099897,136.0
-3.1972084,8.771947,0.9480266,1.0
-3.1848106,7.8932257,0.31549177,152.0
-3.1847258,8.769289,0.30674088,1.0
-3.386855,8.0666685,0.62759167,111.0
-3.1758745,8.362565,0.599174,1.0
-3.1767006,9.43396,0.62669647,1.0
-3.2479455,7.969484,-0.2655721,75.0
-3.6678565,8.020567,1.5028462,25.0
-3.1728685,8.64903,-0.32911375,39.0
-3.207249,8.083207,1.4358873,18.0
-3.393025,8.031846,0.022114327,94.0
-3.170721,8.27787,-0.025038874,1.0
-3.4191089,8.100086,1.9113162,91.0
-3.200551,9.439114,-0.04839254,1.0
-3.2386875,9.180093,2.0477393,10.0
-3.2955036,8.061438,0.9240429,107.0
-3.1972246,8.602592,0.9295268,1.0
-3.217832,9.438953,1.3170153,1.0
-3.3144915,8.06684,0.3266657,111.0
-3.1887288,8.610361,0.29969376,1.0
-3.4540007,8.083667,0.6312548,93.0
-3.1761508,8.206627,0.5871779,1.0
-3.1843982,9.264939,0.6145906,1.0
-3.3310957,8.028267,-0.2668482,106.0
-3.1686592,8.471472,-0.3256271,25.0
-3.1852555,7.8817134,1.4028882,18.0
-3.4513633,8.028721,0.022481237,93.0
-3.1727982,8.129124,-0.026795082,1.0
-3.4814334,8.105384,1.9177982,92.0
-3.1953163,9.233735,-0.050151672,1.0
-3.2370207,8.995906,2.010511,17.0
-3.3621974,8.079026,0.92913115,106.0
-3.1966405,8.437308,0.9114895,1.0
-3.2221267,9.261656,1.2927387,1.0
-3.373635,8.066104,0.3278363,102.0
-3.1873553,8.442382,0.29217046,1.0
-3.507119,8.067281,0.6317781,118.0
-3.1745946,8.051021,0.5751817,1.0
-3.2053692,9.139448,0.60600924,59.0
-3.3900778,8.027424,-0.26717463,90.0
-3.1701353,8.314885,-0.32259703,39.0
-3.3294578,8.09338,1.4452205,77.0
-3.5106015,8.02701,0.022884838,94.0
-3.1723986,7.978822,-0.028576743,1.0
-3.5385141,8.097678,1.9212552,93.0
-3.241034,9.418091,1.5780188,52.0
-3.2016952,9.068377,-0.051533848,1.0
-3.2426565,8.837792,1.9791386,1.0
-3.422235,8.079657,0.9320387,107.0
-3.199087,8.28536,0.89507085,1.0
-3.2079334,9.467837,0.9855659,1.0
-3.2289839,9.09773,1.2704852,1.0
-3.431327,8.06127,0.32879406,109.0
-3.19327,8.299026,0.28588519,1.0
-3.573938,8.081491,0.6352668,94.0
-3.1955795,7.956859,0.56860846,1.0
-3.194548,9.355081,0.28731653,1.0
-3.2005649,8.946523,0.5919113,63.0
-3.4444177,8.015142,-0.26732302,75.0
-3.1676114,8.153024,-0.31944245,23.0
-3.388576,8.092329,1.448887,79.0
-3.56832,8.02122,0.023215055,89.0
-3.2135143,7.936467,-0.02888217,1.0
-3.5948465,8.08779,1.9242802,96.0
-3.186601,9.254274,-0.38017046,1.0
-3.240929,9.23001,1.5492612,33.0
-3.1965818,8.876985,-0.05316733,1.0
-3.2429895,8.670818,1.9456749,1.0
-3.481623,8.078029,0.93470395,108.0
-3.1932454,8.117067,0.87657106,1.0
-3.21051,9.284197,0.9661192,1.0
-3.221714,8.900618,1.2430296,1.0
-3.4882934,8.054197,0.32964543,106.0
-3.1895373,8.135456,0.27855238,1.0
-3.625466,8.060692,0.63544124,114.0
-3.292015,8.051121,0.578797,49.0
-3.193071,9.163244,0.2794938,23.0
-3.2017148,8.776487,0.5796523,108.0
-3.5067904,8.020799,-0.26776817,125.0
-3.1697643,8.008276,-0.31666142,37.0
-3.4516566,8.099934,1.4542202,96.0
-3.6319034,8.027761,0.02380211,84.0
-3.3148468,8.041967,-0.027151413,43.0
-3.1926785,9.087045,-0.37630996,1.0
-3.2459564,9.06274,1.5240184,52.0
-3.202367,8.721663,-0.05445975,1.0
-3.2483609,8.522453,1.9163942,1.0
-3.5411253,8.0759735,0.9373692,89.0
-3.183214,7.943643,0.85737747,1.0
-3.2142339,9.110269,0.94779015,45.0
-3.2210574,8.728081,1.219331,1.0
-3.5534005,8.064985,0.33156094,106.0
-3.18977,7.9871216,0.27198142,1.0
-3.6635487,8.010604,0.6328247,39.0
-3.3531995,8.056065,0.5810976,86.0
-3.196045,8.990616,0.27253073,22.0
-3.201556,8.6086645,0.5675464,42.0
-3.5677361,8.022336,-0.26815397,85.0
-3.1367817,7.780293,-0.31201258,49.0
-3.5048225,8.08352,1.4552201,81.0
-3.6411173,7.9158607,0.022004254,119.0
-3.3699265,8.032056,-0.0269987,33.0
-3.1879609,8.895659,-0.3718061,1.0
-3.238793,8.867981,1.4939827,62.0
-3.199277,8.54791,-0.055931676,1.0
-3.2448766,8.3561535,1.8829305,1.0
-3.5872426,8.077322,0.9397922,106.0
-3.266694,8.042777,0.87171483,46.0
-3.2018595,8.941707,0.92946106,46.0
-3.2028246,8.555399,1.1947656,1.0
-3.599547,8.06637,0.33262512,105.0
-3.2310991,7.9812694,0.27245757,80.0
-3.681906,7.9517126,0.62881273,151.0
-3.4011397,8.064073,0.5832339,49.0
-3.1810756,8.817695,0.26530975,18.0
-3.1875694,8.449939,0.5557471,63.0
-3.1872993,9.4493685,0.5661866,1.0
-3.6129296,8.021828,-0.26842105,105.0
-3.2861998,8.043345,-0.31823874,61.0
-3.559441,8.10487,1.46222,96.0
-3.4209666,8.047405,-0.026566012,43.0
-3.1748512,8.730338,-0.3678466,1.0
-3.2274144,8.710186,1.469379,72.0
-3.1859713,8.392631,-0.05727795,1.0
-3.2272847,8.197136,1.8498851,1.0
-3.1882315,9.357596,-0.11515955,1.0
-3.645315,8.07089,0.9419729,88.0
-3.3488657,8.099273,0.8814272,103.0
-3.2010605,8.7665825,0.91090846,45.0
-3.2125216,8.420566,1.1768471,1.0
-3.2179937,9.422468,1.2644187,1.0
-3.6410336,8.02361,0.33145452,42.0
-3.3250835,8.06804,0.27798098,52.0
-3.460341,8.062712,0.5850415,89.0
-3.1815941,8.649505,0.2585186,1.0
-3.1830204,8.280968,0.543488,104.0
-3.1956017,9.28003,0.5550544,1.0
-3.6297858,7.9263186,-0.267234,90.0
-3.3420172,8.035475,-0.31852928,86.0
-3.615896,8.094962,1.4645532,82.0
-3.4762,8.036776,-0.026413297,51.0
-3.1709092,8.552874,-0.36368918,1.0
-3.221036,8.529182,1.4415799,47.0
-3.187839,8.241995,-0.058534473,1.0
-3.2223544,8.037051,1.8176763,11.0
-3.1810102,9.14645,-0.1156231,1.0
-3.2462432,9.504397,2.0233216,24.0
-3.6559849,7.961321,0.9303426,123.0
-3.4035203,8.087235,0.8825835,43.0
-3.200282,8.597411,0.8930265,28.0
-3.2055078,8.247252,1.1528596,1.0
-3.2045567,9.192467,1.2331502,23.0
-3.6619442,7.9371715,0.32772988,162.0
-3.3864696,8.072804,0.27931422,73.0
-3.5188656,8.059096,0.5866849,48.0
-3.1815386,8.485401,0.2518994,1.0
-3.1867158,8.138365,0.5333743,50.0
-3.1920416,9.082713,0.54180855,23.0
-3.6829095,7.9105997,-0.2673527,52.0
-3.396315,8.023534,-0.31873682,53.0
-3.6691208,8.077475,1.4655532,41.0
-3.537043,8.038596,-0.026082417,75.0
-3.176951,8.407578,-0.3603731,1.0
-3.233196,8.401999,1.4230473,64.0
-3.1760902,9.371913,-0.44683376,1.0
-3.1872041,8.089814,-0.059808947,1.0
-3.2259507,7.902682,1.7913235,89.0
-3.1858914,8.977269,-0.115985684,1.0
-3.251397,9.326442,1.9892033,1.0
-3.462045,8.083971,0.884896,58.0
-3.200343,8.4360285,0.87603855,1.0
-3.1924512,9.395572,0.9094218,1.0
-3.2081692,8.103779,1.1334962,1.0
-3.2055128,9.011562,1.2091405,23.0
-3.4472663,8.075276,0.28055224,73.0
-3.567823,8.033181,0.58635616,91.0
-3.1845703,8.3347,0.2458819,1.0
-3.1854517,9.300513,0.22192295,1.0
-3.1857746,7.9886456,0.5226476,70.0
-3.190816,8.89897,0.529549,34.0
-3.4592485,8.031449,-0.31940094,110.0
-3.5931697,8.029005,-0.025904251,45.0
-3.1740673,8.243907,-0.35656214,1.0
-3.2257676,8.229092,1.3965265,70.0
-3.1738489,9.174063,-0.44096756,1.0
-3.1922758,7.9565144,-0.060903918,1.0
-3.363854,8.093353,1.8402643,60.0
-3.182007,8.789574,-0.11639417,1.0
-3.240736,9.110008,1.9466558,1.0
-3.526977,8.094873,0.8890584,105.0
-3.199225,8.276841,0.85927415,44.0
-3.1950595,9.211726,0.89114636,1.0
-3.1890607,7.911092,1.1063296,1.0
-3.2002954,8.819838,1.1834557,22.0
-3.5082273,8.077302,0.28179026,73.0
-3.6361842,8.050611,0.5899715,45.0
-3.1829195,8.176859,0.23952056,1.0
-3.1835122,9.106611,0.21519211,26.0
-3.211002,7.9075594,0.51759076,154.0
-3.196945,8.741859,0.5192623,20.0
-3.5200202,8.033389,-0.31994054,72.0
-3.6336565,7.984404,-0.026209679,21.0
-3.1773326,8.101066,-0.35329556,1.0
-3.2288132,8.087757,1.3754375,73.0
-3.173218,8.987935,-0.43547577,24.0
-3.2688303,8.001036,-0.060275655,21.0
-3.4261312,8.09905,1.8465387,83.0
-3.1882856,8.636087,-0.116720036,1.0
-3.244096,8.9401655,1.9141431,1.0
-3.5706692,8.0908985,0.89067715,46.0
-3.1878567,8.13411,0.8438509,44.0
-3.17933,9.027602,0.8722407,1.0
-3.3053613,8.088146,1.1366752,68.0
-3.190124,8.663304,1.1622379,22.0
-3.550253,8.069833,0.2822664,73.0
-3.6328392,7.9426584,0.5817549,93.0
-3.170502,8.033642,0.23358905,1.0
-3.1719043,8.93694,0.20919289,35.0
-3.3260906,8.080248,0.53322107,114.0
-3.1773894,8.561967,0.5068619,18.0
-3.5642924,8.031348,-0.3202726,86.0
-3.6537545,7.92901,-0.026744178,1.0
-3.155278,7.9356546,-0.34928662,1.0
-3.1849492,7.87133,1.3402894,142.0
-3.157886,8.810921,-0.4301088,38.0
-3.2038279,9.300448,1.4683266,1.0
-3.329581,8.040922,-0.059737146,22.0
-3.4696813,8.095386,1.8494668,86.0
-3.1710658,8.465385,-0.11710098,1.0
-3.2363822,8.788613,1.8844402,1.0
-3.6287189,8.084632,0.89275837,58.0
-3.1633077,7.92582,0.82105136,94.0
-3.1758258,8.838857,0.8533351,1.0
-3.3698742,8.100076,1.1418773,93.0
-3.1842973,8.48165,1.1379489,22.0
-3.6130629,8.074747,0.28369486,69.0
-3.1602025,7.863531,0.22662598,1.0
-3.1684794,8.7513275,0.20275469,20.0
-3.388418,8.086751,0.53551966,85.0
-3.1742857,8.390562,0.4954479,1.0
-3.6155026,8.010619,-0.3203141,50.0
-3.1952643,7.8916044,-0.3486432,1.0
-3.335699,8.095534,1.3831062,141.0
-3.1592917,8.642463,-0.42517868,25.0
-3.2035382,9.112145,1.4411526,11.0
-3.3940961,8.052983,-0.05941404,21.0
-3.533837,8.10387,1.8565779,87.0
-3.171008,8.305039,-0.1174452,1.0
-3.2312925,8.606554,1.8491178,1.0
-3.6540024,8.0055895,0.8855897,108.0
-3.163209,9.422855,-0.17089632,1.0
-3.2491734,7.99408,0.83178055,79.0
-3.1734786,8.659863,0.83547974,1.0
-3.4276843,8.095128,1.1444783,77.0
-3.188277,8.331889,1.1184062,22.0
-3.6307988,7.9790764,0.27988562,39.0
-3.299366,8.061524,0.23676972,95.0
-3.169731,8.584882,0.19704811,17.0
-3.4344425,8.054307,0.5346002,125.0
-3.188418,8.269844,0.48783857,1.0
-3.1939301,9.352032,0.507013,1.0
-3.63672,7.9240704,-0.31886134,123.0
-3.3160613,8.043112,-0.3532461,44.0
-3.3918736,8.087149,1.385343,103.0
-3.1587071,8.47434,-0.42024857,36.0
-3.2056558,8.937257,1.4160922,41.0
-3.4477975,8.038843,-0.05934224,20.0
-3.5886707,8.090437,1.8586693,89.0
-3.1719463,8.152496,-0.11777107,1.0
-3.2282217,8.435902,1.8162036,1.0
-3.1701715,9.251543,-0.1703643,1.0
-3.3459551,8.085422,0.8454156,88.0
-3.1752377,8.498036,0.819515,1.0
-3.491076,8.102482,1.1491024,90.0
-3.1940782,8.191652,1.1002593,22.0
-3.2299607,9.334765,1.1975415,1.0
-3.68253,7.9597363,0.2800761,76.0
-3.35768,8.059061,0.23762935,78.0
-3.167618,8.415027,0.1911952,1.0
-3.5073233,8.083739,0.5388909,87.0
-3.1902833,8.121405,0.4781155,1.0
-3.1977854,9.175474,0.49619907,42.0
-3.368866,8.027643,-0.35339457,55.0
-3.4527495,8.089259,1.3894968,115.0
-3.1589599,8.314054,-0.41556805,24.0
-3.2063797,8.764566,1.3913337,46.0
-3.5119083,8.048151,-0.059037082,1.0
-3.6507497,8.092662,1.8645254,72.0
-3.1718273,8.002136,-0.11809234,1.0
-3.2394118,8.307655,1.7925215,1.0
-3.1737802,9.076749,-0.169819,1.0
-3.4036727,8.080708,0.8474273,91.0
-3.1772015,8.342116,0.8041804,1.0
-3.5459094,8.08944,1.1505475,75.0
-3.18807,8.025885,1.0782038,23.0
-3.185993,9.447628,0.8652638,1.0
-3.2288172,9.146211,1.1734041,1.0
-3.415309,8.054345,0.23840304,93.0
-3.1663446,8.253015,0.18563496,30.0
-3.5580454,8.0615425,0.5388909,134.0
-3.1528363,7.878719,0.46120587,1.0
-3.1871376,9.397687,0.17733856,1.0
-3.1948423,8.98609,0.48447305,38.0
-3.4287128,8.02836,-0.3539885,48.0
-3.5098324,8.081879,1.392053,96.0
-3.157325,8.154103,-0.41088757,37.0
-3.2071226,8.597787,1.367481,46.0
-3.569747,8.04236,-0.05887553,1.0
-3.1744115,7.8632417,-0.11838608,1.0
-3.2203555,8.106702,1.7527838,9.0
-3.1719396,8.892868,-0.16924044,1.0
-3.4646118,8.082887,0.85033315,88.0
-3.1794794,8.19208,0.78947604,1.0
-3.611247,8.099503,1.1557497,94.0
-3.1978269,7.9046245,1.0628488,49.0
-3.1957731,9.284524,0.8500376,1.0
-3.2301621,8.971089,1.1511441,1.0
-3.4761944,8.056554,0.23952056,80.0
-3.1675026,8.102535,0.18051367,1.0
-3.6250434,8.075375,0.54195565,82.0
-3.2658913,8.015947,0.4731835,65.0
-3.195473,9.232126,0.17244864,1.0
-3.1985445,8.821484,0.4744408,22.0
-3.4806907,8.010323,-0.35408747,41.0
-3.5677605,8.075903,1.3949288,116.0
-3.1538072,7.9945083,-0.40620708,25.0
-3.2045014,8.42765,1.3430245,47.0
-3.6301322,8.041623,-0.058660127,1.0
-3.300856,8.032009,-0.11791794,69.0
-3.2420063,8.013587,1.7367281,43.0
-3.1583405,8.725616,-0.16870178,1.0
-3.5130084,8.090145,0.853239,96.0
-3.1630177,8.03622,0.7735113,1.0
-3.651012,8.0859995,1.1563276,51.0
-3.3179555,8.093058,1.0938381,66.0
-3.1826952,9.107925,0.83280784,73.0
-3.204668,8.771618,1.124593,1.0
-3.5205572,8.054716,0.24020828,89.0
-3.1631866,7.9796534,0.1762703,1.0
-3.6356876,7.9983582,0.5368988,44.0
-3.3323994,8.070608,0.47853824,101.0
-3.1782763,9.045471,0.16666965,1.0
-3.1783857,8.639749,0.46284512,19.0
-3.5354035,8.032222,-0.35512683,55.0
-3.617124,8.084205,1.3994021,99.0
-3.1405268,7.851367,-0.401901,96.0
-3.187603,8.264755,1.3188698,43.0
-3.63122,7.9444804,-0.05944994,55.0
-3.3562553,8.058871,-0.11781237,74.0
-3.3166878,8.088949,1.7567977,67.0
-3.1657326,8.578116,-0.16824956,1.0
-3.2384822,9.535897,1.9327484,31.0
-3.5694213,8.080626,0.8548037,92.0
-3.2369907,8.075319,0.78023326,1.0
-3.673531,8.001815,1.1465014,112.0
-3.3717737,8.079368,1.0949547,82.0
-3.185412,8.936038,0.8165799,43.0
-3.206138,8.608415,1.1039423,1.0
-3.58252,8.057972,0.24141178,77.0
-3.193923,7.9113884,0.17436811,139.0
-3.6606479,7.9211106,0.53230166,169.0
-3.3891919,8.064239,0.47966555,72.0
-3.1828039,8.880538,0.16177975,1.0
-3.1804428,8.4814415,0.45320374,1.0
-3.594013,8.028079,-0.35562176,51.0
-3.6694903,8.064908,1.4000412,60.0
-3.2647567,8.016795,-0.40814167,63.0
-3.1862776,8.108272,1.2965268,12.0
-3.4130337,8.05237,-0.11777566,63.0
-3.3817055,8.102338,1.7644241,88.0
-3.169273,8.425262,-0.1677774,1.0
-3.2142723,9.2744255,1.8829099,1.0
-3.1568048,9.379019,-0.21664053,1.0
-3.6291275,8.077961,0.85726243,99.0
-3.2899072,8.060351,0.78086346,68.0
-3.4317105,8.079919,1.098305,80.0
-3.1806247,8.749532,0.7987491,29.0
-3.2071004,8.449248,1.0838277,1.0
-3.1908562,9.379013,1.1314373,16.0
-3.6330788,8.035304,0.24141178,36.0
-3.3123126,8.05955,0.18102579,51.0
-3.4421344,8.048293,0.4800883,86.0
-3.1791737,8.699027,0.15631828,1.0
-3.1928213,8.355121,0.44577727,1.0
-3.184685,9.289626,0.44697857,1.0
-3.6219032,7.956259,-0.35428545,25.0
-3.693434,7.9844146,1.3898163,149.0
-3.3272429,8.025699,-0.40914017,79.0
-3.1940691,7.9796953,1.2787129,123.0
-3.4722261,8.050988,-0.11772517,78.0
-3.4447362,8.109812,1.7708464,81.0
-3.1688588,8.267111,-0.1672853,1.0
-3.2165294,9.096861,1.8503232,11.0
-3.1607637,9.198116,-0.21528706,77.0
-3.6491008,7.988182,0.848992,61.0
-3.3511107,8.06526,0.78380436,76.0
-3.4902244,8.076394,1.1010967,97.0
-3.186144,8.597004,0.78452456,66.0
-3.2083488,8.295957,1.0645179,1.0
-3.1999137,9.214379,1.1118495,1.0
-3.6172276,7.8690467,0.23462062,141.0
-3.3605855,8.033043,0.18080631,69.0
-3.502928,8.050312,0.48192018,90.0
-3.1740928,8.51979,0.15092033,1.0
-3.178976,8.165808,0.43392098,1.0
-3.1826944,9.095938,0.43603575,49.0
-3.678574,7.947845,-0.3546814,1.0
-3.3891962,8.032289,-0.4100763,92.0
-3.2701097,8.02361,1.2892804,100.0
-3.533134,8.052846,-0.11766551,78.0
-3.5010355,8.100611,1.7736561,86.0
-3.1636572,8.101857,-0.16676658,1.0
-3.212665,8.908569,1.8154362,48.0
-3.153366,8.991099,-0.21371067,48.0
-3.7059505,7.9795012,0.8507802,94.0
-3.4101942,8.064215,0.78611505,77.0
-3.5456574,8.065194,1.1027719,82.0
-3.1820934,8.424297,0.76809627,69.0
-3.1815898,9.410277,0.7851164,1.0
-3.2034154,8.131933,1.0435989,1.0
-3.1918814,9.006969,1.086411,1.0
-3.418778,8.030177,0.18153793,88.0
-3.5606694,8.0445795,0.4831884,75.0
-3.179736,8.374576,0.14666547,1.0
-3.1765192,9.311531,0.107969195,1.0
-3.1813805,8.023342,0.4253219,1.0
-3.187739,8.928991,0.42675814,48.0
-3.452148,8.040255,-0.4110748,73.0
-3.3528543,8.081506,1.3022636,91.0
-3.594202,8.054255,-0.11760584,79.0
-3.5620618,8.101793,1.7788743,87.0
-3.164685,7.957423,-0.16632102,1.0
-3.2181487,8.7519865,1.7870667,43.0
-3.1568887,8.822236,-0.21245272,53.0
-3.4717424,8.068233,0.7890559,80.0
-3.6107383,8.075333,1.1077971,80.0
-3.1846287,8.274253,0.75407207,67.0
-3.1915717,9.246934,0.7710451,1.0
-3.1824467,7.9333887,1.0175842,1.0
-3.1920981,8.829905,1.0650425,1.0
-3.477067,8.0268955,0.18226954,83.0
-3.6176622,8.036617,0.48431572,86.0
-3.1815047,8.224044,0.1422201,1.0
-3.1787605,9.128886,0.10367233,44.0
-3.1708474,7.853441,0.41476852,1.0
-3.1894553,8.758591,0.41724265,67.0
-3.5033937,8.02024,-0.4111372,86.0
-3.4081545,8.0712185,1.3040751,85.0
-3.629114,7.9968734,-0.117693044,33.0
-3.619262,8.093576,1.7820853,89.0
-3.2059095,7.9516873,-0.16635428,101.0
-3.1986258,8.575015,1.7533298,11.0
-3.1400688,8.645471,-0.21108332,45.0
-3.5128863,8.059083,0.78989613,82.0
-3.6292465,8.014885,1.1010967,34.0
-3.1719127,8.127656,0.73984754,69.0
-3.1735716,9.055003,0.7536411,1.0
-3.276115,8.055867,1.0376986,71.0
-3.1766214,8.658199,1.043674,1.0
-3.5276353,8.039735,0.18344012,86.0
-3.6258552,7.9540596,0.47924283,79.0
-3.1622145,8.06208,0.13720317,1.0
-3.1667645,8.95723,0.09952536,34.0
-3.2990606,8.059841,0.43040317,77.0
-3.1729121,8.58603,0.4072514,54.0
-3.5508041,8.0256,-0.41188607,92.0
-3.4523387,8.069624,1.3064907,93.0
-3.6351848,7.9105515,-0.117867455,45.0
-3.3016403,8.042289,-0.16675329,67.0
-3.2054305,8.431923,1.7276438,46.0
-3.1397862,8.477287,-0.2098254,33.0
-3.5698693,8.051413,0.7915766,77.0
-3.6358576,7.89648,1.0863001,144.0
-3.164505,7.961616,0.72402024,114.0
-3.169753,8.864117,0.7367926,1.0
-3.3556387,8.104642,1.04789,86.0
-3.1743078,8.485585,1.0228143,1.0
-3.587804,8.039336,0.18431805,89.0
-3.6849418,7.951053,0.48079288,46.0
-3.176255,7.9511776,0.1340914,1.0
-3.1649964,8.775281,0.0952285,37.0
-3.3558118,8.053677,0.43144548,89.0
-3.1736245,8.423815,0.3982117,35.0
-3.6044242,8.010431,-0.4121357,42.0
-3.5108218,8.06592,1.30951,93.0
-3.3567588,8.032447,-0.16679318,87.0
-3.194876,8.248855,1.6935236,51.0
-3.1445382,8.328182,-0.20872669,43.0
-3.6244538,8.037899,0.792627,41.0
-3.2249804,7.967375,0.72682506,109.0
-3.1724808,8.697983,0.7223511,1.0
-3.4126863,8.097994,1.0500355,76.0
-3.1748703,8.326334,1.0037353,1.0
-3.6144142,7.9637995,0.18219638,40.0
-3.2685766,8.034657,0.1376477,47.0
-3.1596973,8.589959,0.090831704,41.0
-3.416533,8.056294,0.43313923,95.0
-3.1724255,8.261936,0.38917196,22.0
-3.5725791,8.0690365,1.313737,97.0
-3.4181802,8.036938,-0.16688628,77.0
-3.1951933,8.099094,1.6663041,47.0
-3.141831,8.164411,-0.2075006,53.0
-3.613027,7.879227,0.7768723,138.0
-3.3253055,8.068265,0.7400479,85.0
-3.171868,8.528434,0.7075392,1.0
-3.4721386,8.096409,1.0529855,87.0
-3.1757016,8.172968,0.9854195,1.0
-3.6393843,7.886431,0.18000154,136.0
-3.3366868,8.056397,0.13910833,53.0
-3.154988,8.412551,0.08663477,42.0
-3.4694693,8.040161,0.43353012,82.0
-3.1671507,8.094829,0.37977543,26.0
-3.626438,8.053649,1.3149447,95.0
-3.4757972,8.031805,-0.16694614,87.0
-3.1672583,7.8841534,1.6252831,44.0
-3.1386433,8.004736,-0.20630637,80.0
-3.202914,9.38785,1.8119181,1.0
-3.3844488,8.067377,0.7422517,100.0
-3.174866,8.374151,0.6942085,1.0
-3.5348926,8.101654,1.0570085,79.0
-3.1776364,8.027311,0.96812123,1.0
-3.3934867,8.049995,0.13961637,46.0
-3.1666262,8.284147,0.08373689,42.0
-3.5328217,8.047412,0.43561473,78.0
-3.1503515,7.903986,0.36883262,140.0
-3.6433928,7.9569244,1.3025655,77.0
-3.539965,8.040894,-0.1670592,77.0
-3.2899873,8.041969,1.6628537,99.0
-3.1719172,7.942099,-0.20594013,147.0
-3.2078433,9.211451,1.7811801,1.0
-3.4468544,8.073378,0.74525684,94.0
-3.1667778,8.196003,0.6784709,1.0
-3.5946164,8.09919,1.0599586,75.0
-3.1904035,7.9132648,0.9551475,1.0
-3.4479606,8.037691,0.1399339,53.0
-3.1587436,8.109316,0.07958991,43.0
-3.593948,8.048721,0.4373085,89.0
-3.2305539,7.9599547,0.3737093,78.0
-3.5835483,8.036896,-0.16710575,97.0
-3.3490164,8.077098,1.6735882,90.0
-3.253328,8.036541,-0.2068796,65.0
-3.189321,9.019992,1.7464168,1.0
-3.4912145,8.071642,0.7468596,91.0
-3.1548126,8.05108,0.66551054,1.0
-3.6417265,8.102025,1.0629088,94.0
-3.298534,8.072764,0.9793142,67.0
-3.5058234,8.067141,0.14152153,82.0
-3.147275,7.967772,0.076192394,48.0
-3.6186128,8.002631,0.43522388,29.0
-3.3148458,8.059228,0.38108382,96.0
-3.6040895,7.948717,-0.16686633,48.0
-3.4165828,8.095643,1.6820225,91.0
-3.3105783,8.032599,-0.2070229,91.0
-3.1922157,8.849841,1.7167765,1.0
-3.548306,8.064103,0.7484624,92.0
-3.167911,7.9366837,0.65606797,1.0
-3.6569564,8.0015545,1.0513765,74.0
-3.36207,8.083047,0.98363876,75.0
-3.5572536,8.046781,0.14158504,45.0
-3.1549935,7.8420095,0.07334448,147.0
-3.612685,7.8583765,0.4264945,144.0
-3.3669512,8.041927,0.3813217,100.0
-3.6606936,7.9404297,-0.16691954,94.0
-3.4704964,8.0812235,1.6835558,91.0
-3.367907,8.028254,-0.20716622,97.0
-3.1957994,8.687404,1.6886,1.0
-3.6119769,8.070681,0.7516679,88.0
-3.2773516,8.064353,0.6708798,44.0
-3.7163916,7.9981694,1.0543265,38.0
-3.4212508,8.081878,0.986437,75.0
-3.6168058,8.044305,0.14228359,73.0
-3.3013978,8.060937,0.079789765,62.0
-3.4290876,8.048192,0.38310584,92.0
-3.5291038,8.077228,1.6873896,91.0
-3.4206262,8.012458,-0.20721398,97.0
-3.18992,8.505009,1.6563982,1.0
-3.62782,7.971837,0.7432534,56.0
-3.3287134,8.045444,0.671065,59.0
-3.4852326,8.091226,0.99076164,77.0
-3.6338637,7.948778,0.13974339,42.0
-3.3466253,8.027104,0.07944003,91.0
-3.4866962,8.04299,0.38417634,93.0
-3.591003,8.079981,1.6927569,90.0
-3.4875443,8.029368,-0.20754838,94.0
-3.1881583,8.33958,1.6274898,1.0
-3.680356,7.9542975,0.74385446,132.0
-3.3991818,8.072135,0.6758788,46.0
-3.5415463,8.0819,0.9925423,78.0
-3.6871223,7.9330325,0.13999741,15.0
-3.4063144,8.028027,0.08003958,89.0
-3.5483813,8.046523,0.38584155,93.0
-3.6538882,8.084061,1.6985074,82.0
-3.5483773,8.031102,-0.20775537,97.0
-3.1901217,8.189185,1.6015087,1.0
-3.4420319,8.032295,0.6740273,62.0
-3.5906494,8.05586,0.99203354,75.0
-3.4677236,8.03219,0.08073907,94.0
-3.6045582,8.036835,0.38667417,86.0
-3.5853708,8.012465,-0.20773946,47.0
-3.1870265,8.067898,1.5802848,1.0
-3.501141,8.065357,0.67902637,46.0
-3.6342554,8.05152,0.99381423,30.0
-3.515895,8.039598,0.0813886,93.0
-3.6169279,7.9633493,0.3829869,62.0
-3.6092722,7.931467,-0.20722991,147.0
-3.1807473,7.905296,1.5517424,17.0
-3.5485468,8.035906,0.6782857,61.0
-3.6320798,7.913017,0.9775335,46.0
-3.5752316,8.037464,0.0819382,95.0
-3.2290032,8.457324,2.1199076,21.0
-3.6702225,7.9477243,0.38346267,114.0
-3.3170574,8.098241,1.5945561,59.0
-3.6152008,8.049821,0.6819887,43.0
-3.597787,7.9528403,0.08023944,36.0
-3.2049325,8.237233,2.0689745,1.0
-3.3776565,8.100855,1.5993133,79.0
-3.624554,7.936279,0.6727313,62.0
-3.648516,7.9318967,0.0802894,142.0
-3.2160003,8.113739,2.0425818,1.0
-3.439183,8.104837,1.6044362,77.0
-3.2328851,8.008494,2.0208197,1.0
-3.49314,8.090297,1.6058999,74.0
-3.341237,8.130328,2.0573988,51.0
-3.5414145,8.097188,1.610657,75.0
-3.3772814,8.109099,2.0560098,71.0
-3.600966,8.094559,1.6146822,75.0
-3.4477997,8.134341,2.0680485,46.0
-3.4957752,8.105364,2.0661964,55.0
-3.5575204,8.108209,2.0726788,36.0
