x,y,z,intensity
4.664308,6.985277,1.8729727,128.0
4.6536913,6.7093525,1.388855,1.0
4.618189,7.011183,1.872087,91.0
4.6923785,6.85736,1.4139193,68.0
4.6776557,7.0241933,1.4365803,1.0
4.611011,6.99508,1.4259365,30.0
4.583586,7.3300185,1.9287769,1.0
4.566969,7.0239134,1.4259365,66.0
4.4782953,7.262247,1.9030893,1.0
4.4994354,7.015925,1.4183829,104.0
4.5092816,7.4170775,1.936749,111.0
4.4615593,7.0540633,1.4204429,73.0
4.7099004,6.9855437,1.8300745,38.0
4.4638886,7.157301,1.4358935,86.0
4.656148,7.0003886,1.8261853,155.0
4.5216403,7.3532877,1.4702282,103.0
4.695737,6.8294663,1.3668892,1.0
4.6109962,7.027876,1.8257532,95.0
4.870083,7.155531,2.3550642,45.0
4.6868877,6.885696,1.373889,159.0
4.5927715,7.0724187,1.8318031,98.0
4.1804,6.9924316,2.279421,132.0
4.8444395,7.214753,2.3646455,63.0
4.7428346,7.0621104,1.4038882,73.0
4.642946,7.068392,0.8932712,49.0
4.758414,7.1840687,2.3444183,109.0
4.632784,6.993289,1.3838887,154.0
4.6741724,7.39827,1.9022412,71.0
4.5833855,7.074063,0.88987905,201.0
4.718473,7.221882,2.3470798,123.0
4.5865874,7.018963,1.3832221,115.0
4.5975385,7.3794975,1.8897094,138.0
4.5835767,7.17309,0.9000555,81.0
4.7201695,7.3241982,2.371033,42.0
4.538106,7.041023,1.3818887,119.0
4.5644197,7.429838,1.8953271,50.0
4.509706,7.0943227,1.3868886,85.0
4.5278025,7.4750495,1.8996484,125.0
4.706377,7.035268,0.8465088,1.0
4.5141726,7.175495,1.3988883,123.0
4.677455,7.0878763,0.8497463,104.0
4.539964,7.3174977,1.4215543,73.0
4.6978607,6.9526606,1.7603697,1.0
4.6208634,7.0988398,0.84720254,30.0
4.721094,7.0831,1.786304,65.0
4.579401,7.1327405,0.8478963,41.0
4.7771945,7.004196,1.0988153,1.0
4.2456665,7.043043,2.2358305,41.0
4.630088,6.7378936,1.2891647,1.0
4.611193,7.012782,1.760788,94.0
4.625207,6.872907,1.0704927,173.0
4.6704483,6.88962,1.3131294,151.0
4.5861244,7.0711985,1.7683173,111.0
4.626643,6.9695415,1.082342,106.0
4.634722,6.930336,1.315366,126.0
4.5959144,6.99458,1.08292,98.0
4.802664,7.201399,2.2848535,1.0
4.635671,7.0032167,1.3252715,191.0
4.704015,7.432337,1.846957,56.0
4.68993,7.0126343,0.81009865,147.0
4.549731,7.019992,1.082342,131.0
4.70654,7.1538453,2.2600048,86.0
4.585125,7.0222707,1.3233542,194.0
4.6644454,7.4733763,1.8498851,120.0
4.6817613,7.096796,0.81747496,112.0
4.537388,7.098541,1.0910121,78.0
4.682454,7.2157364,2.2703583,91.0
4.539848,7.0492787,1.3230348,197.0
4.609227,7.4891925,1.8465387,98.0
4.6154785,7.092704,0.81300443,38.0
4.512672,7.1587667,1.0965033,111.0
4.7243013,6.9458404,1.044981,49.0
4.5102296,7.101032,1.3275082,196.0
4.5459085,7.4912157,1.839846,122.0
4.75795,6.9956994,1.6989974,62.0
4.5622673,7.1081624,0.81121624,60.0
4.5081925,7.252626,1.1077745,97.0
4.64402,6.9212065,1.035768,178.0
4.478051,7.1493382,1.3313425,187.0
4.5087523,7.536437,1.844029,78.0
4.6832247,6.979974,1.6877583,136.0
4.6092186,6.963439,1.0380015,98.0
4.534319,7.3421926,1.3626564,179.0
4.442508,7.532566,1.8360813,60.0
4.634935,7.0027366,1.6861528,116.0
4.5861573,6.999967,1.0405141,135.0
4.712262,6.8741593,1.2388577,99.0
4.5932627,7.0114098,1.6829417,87.0
4.6748652,7.014351,0.75166476,46.0
4.552874,7.045252,1.043306,81.0
4.2612767,7.014924,2.1647513,123.0
4.6734242,6.9101715,1.2400655,182.0
4.5715327,7.0746355,1.691371,91.0
4.64057,7.058519,0.7535553,41.0
4.534161,7.113738,1.0500064,106.0
4.2220592,7.0498586,2.1673398,130.0
4.6497374,6.968954,1.2455002,114.0
4.607324,7.228599,1.7218766,112.0
4.597215,7.0892034,0.7537654,54.0
4.52852,7.2040296,1.0603361,127.0
4.8037186,7.2171454,2.208257,149.0
4.6167684,7.0145197,1.2485195,159.0
4.6622906,7.416414,1.7604102,38.0
4.5687175,7.1430426,0.75691634,86.0
4.535538,7.3163786,1.0742953,64.0
4.637986,6.8667045,0.98218274,1.0
4.739081,7.2180963,2.1992404,175.0
4.5661206,7.033455,1.2467079,142.0
4.6321793,7.4721675,1.7668325,127.0
4.829106,6.8062897,1.5957634,1.0
4.641832,6.9667473,0.99371505,173.0
4.7020855,7.2607117,2.2032478,166.0
4.53254,7.07863,1.2497272,125.0
4.577959,7.489439,1.7640227,87.0
4.873436,6.938381,1.6218328,44.0
4.6317806,7.0233445,0.9993471,82.0
4.520378,7.1332593,1.2557659,107.0
4.5466866,7.517626,1.7656283,65.0
4.591867,7.0589643,1.0004199,130.0
4.519645,7.231832,1.2684472,89.0
4.7005534,7.1032567,0.7190116,118.0
4.5730133,7.127773,1.0068564,55.0
4.370309,7.0127215,2.1030636,174.0
4.559501,7.3979006,1.2932056,38.0
4.63022,6.862757,1.5827287,45.0
4.631988,7.095934,0.714604,55.0
4.551364,7.193267,1.0127567,138.0
4.3220897,7.0334535,2.10106,163.0
4.6325197,6.9604564,1.5988305,162.0
4.588385,7.126573,0.71480435,158.0
4.5457935,7.2857127,1.022948,60.0
4.276805,7.0588174,2.100559,142.0
4.6037207,7.012435,1.6041976,126.0
4.591337,7.2309713,0.7238199,37.0
4.6367188,6.986831,0.93632287,93.0
4.2353597,7.0905294,2.1020617,103.0
4.568493,7.0307546,1.6034309,150.0
4.612488,7.021847,0.938358,96.0
4.5379443,7.0808377,1.6084148,135.0
4.5834355,7.0739603,0.9419194,107.0
4.7671165,7.1675806,2.107689,151.0
4.5226173,7.1557407,1.6191492,84.0
4.7818823,6.7491574,1.5052694,18.0
4.5646324,7.1426754,0.9480247,77.0
4.723048,7.199017,2.1081717,132.0
4.646152,7.455954,1.6816391,142.0
4.828697,6.9061565,1.5341778,112.0
4.5738125,7.2566757,0.96099836,50.0
4.6840262,7.238342,2.1110697,117.0
4.5951185,7.4783,1.6801056,72.0
4.47721,7.0136695,2.0362055,118.0
4.419664,7.0202775,2.0299265,132.0
4.6193414,6.856688,1.5045375,1.0
4.384488,7.037727,2.0289607,112.0
4.6580954,7.0081935,1.5319822,148.0
4.349289,7.080042,2.0333076,92.0
4.616134,7.040606,1.532714,74.0
4.578236,7.079362,1.5349096,115.0
4.548524,7.1311603,1.5400326,79.0
4.5946136,6.9307265,1.94442,18.0
4.532003,7.204468,1.5499127,95.0
4.5766277,6.998477,1.9555327,66.0
4.6291904,7.4613705,1.6000451,87.0
4.528331,7.0205646,1.9536805,100.0
4.4909935,7.035276,1.9518285,58.0
