x,y,z,intensity
7.7672606,4.5000844,2.0040681,124.0
7.666629,4.5061374,1.985024,93.0
7.557866,4.506092,1.9637653,121.0
8.176124,4.68315,1.6079104,1.0
7.4627423,4.512965,1.9460496,97.0
7.6773834,4.4771347,2.4898326,14.0
7.3628526,4.5157514,1.9270053,112.0
8.415059,4.560297,2.0837383,52.0
7.539966,4.460381,2.453762,1.0
7.2781086,4.526768,1.9119471,79.0
8.233785,4.5296397,2.0452783,105.0
7.5084977,4.5056806,2.452669,50.0
7.1951666,4.537944,1.8973317,135.0
8.073719,4.508267,2.0120037,195.0
7.424761,4.502956,2.4319012,45.0
7.121151,4.538132,1.8831593,81.0
7.296506,4.4877977,2.3985631,30.0
7.035251,4.545601,1.8676581,135.0
7.9218693,4.5387483,1.9860756,104.0
7.224156,4.5059586,2.3838072,53.0
6.939768,4.5457354,1.8494996,69.0
7.793461,4.5307527,1.9605796,114.0
7.0560822,4.4624834,2.336806,78.0
7.6839967,4.5321956,1.9398371,106.0
6.9696937,4.469201,2.3171313,118.0
6.9580154,4.6839557,1.8703154,35.0
7.574825,4.5324435,1.9190946,97.0
6.888333,4.4781685,2.2990959,86.0
8.09794,4.67587,1.546551,17.0
7.086068,4.835693,1.9137187,16.0
7.4910316,4.5466404,1.9048342,104.0
7.7022877,4.4984474,2.4279883,1.0
7.096868,4.8923573,1.9230193,61.0
7.4045134,4.54222,1.8879808,111.0
6.63724,4.418786,2.2302341,46.0
7.589169,4.4968276,2.4008415,1.0
7.203803,4.7811713,1.4726317,1.0
7.1122766,4.9693546,1.9358631,73.0
7.322692,4.5557694,1.8741524,75.0
6.458109,4.3577757,2.1783144,45.0
7.502852,4.5097957,2.3822112,1.0
7.0430465,4.7380443,1.445164,1.0
7.1222286,5.043345,1.9473783,69.0
7.206261,4.5466723,1.8512492,103.0
8.173329,4.4909706,1.9603153,166.0
6.492421,4.440787,2.1996288,122.0
7.434807,4.5328546,2.369436,1.0
7.0895224,4.8345575,1.4613012,80.0
7.104637,5.0982623,1.9513643,70.0
8.138126,4.538411,1.9586421,231.0
6.4186215,4.4495864,2.1837795,76.0
7.2945175,4.510795,2.3332403,1.0
6.9894247,4.83067,1.4465373,71.0
7.053567,5.128993,1.9460496,26.0
8.0414505,4.5507746,1.9419103,61.0
6.3245425,4.443204,2.1608257,110.0
7.141718,4.4789915,2.292786,1.0
6.046243,4.4726534,2.512279,1.0
6.9234915,4.8495364,1.4389837,67.0
7.021235,4.617549,1.8253211,1.0
7.938168,4.5581937,1.9235052,106.0
6.228363,4.419319,2.1345925,150.0
7.029203,4.455025,2.2629776,1.0
6.0493307,4.519301,2.522546,39.0
6.849179,4.8455696,1.4279966,67.0
6.1720195,4.589572,1.7122037,1.0
7.847341,4.55514,1.9063551,93.0
6.202032,4.459493,2.135139,209.0
6.953965,4.4689927,2.247541,41.0
5.930378,4.488383,2.4840446,35.0
6.783431,4.8631663,1.4204429,59.0
7.4698687,4.797303,1.4665532,1.0
6.175708,4.652993,1.7215044,1.0
7.0641313,4.7575135,1.850385,17.0
7.731048,4.5525527,1.8846036,116.0
6.11647,4.4563017,2.1149178,223.0
6.844857,4.4601736,2.2209263,82.0
5.878059,4.5070477,2.4737775,57.0
7.960133,4.5013514,2.415827,1.0
6.7352376,4.8929105,1.4166662,65.0
7.252559,4.7229776,1.4288875,1.0
6.203596,4.7356405,1.7378913,16.0
7.148795,4.8797,1.8810667,56.0
7.646959,4.5678144,1.8707999,104.0
6.177943,4.5611587,2.146616,254.0
6.7554717,4.462866,2.2006993,70.0
5.804841,4.5089073,2.454527,66.0
7.911612,4.539695,2.4096148,118.0
6.6631804,4.904663,1.4077392,52.0
7.296913,4.817172,1.4438871,118.0
6.1537027,4.7589617,1.7321337,1.0
7.1517725,4.947773,1.8901415,87.0
7.532919,4.563889,1.8494668,99.0
5.9446774,4.4460735,2.0739284,234.0
6.672744,4.468887,2.1826012,91.0
5.740747,4.517079,2.4391263,61.0
6.586513,4.9121585,1.3977821,49.0
7.2106934,4.825763,1.4325541,77.0
6.108359,4.7854643,1.7277049,1.0
7.15898,5.019427,1.9005127,80.0
8.20302,4.815434,1.5054858,151.0
5.8768396,4.453018,2.0597188,167.0
6.5774264,4.465416,2.160245,85.0
5.6206164,4.479602,2.3993416,84.0
6.228811,4.444081,2.5036008,1.0
7.639649,4.511542,2.342834,26.0
7.270827,4.5177007,2.737566,1.0
6.5382595,4.9403367,1.3940052,24.0
7.116483,4.8279467,1.4195545,64.0
6.085793,4.8298316,1.7299193,86.0
7.141651,5.074455,1.9044019,85.0
8.140413,4.8476176,1.4994147,38.0
7.362267,4.58759,1.8210226,144.0
8.185281,4.5271416,1.8820318,1.0
5.954894,4.556928,2.0952427,254.0
6.4926033,4.45291,2.1389532,152.0
5.5920825,4.5000796,2.3961332,36.0
6.2648897,4.514293,2.5269055,122.0
7.565295,4.5156856,2.326268,1.0
7.2623286,4.560038,2.7424965,1.0
6.4852014,4.94831,1.3874817,41.0
7.0708427,4.8458753,1.4148879,92.0
6.1039724,4.8914933,1.7418773,43.0
7.1351395,5.1205363,1.9091555,76.0
8.000915,4.8154225,1.4773672,124.0
7.259592,4.570979,1.8005261,92.0
8.168993,4.5685215,1.8832359,124.0
5.886696,4.563499,2.0810332,254.0
6.448639,4.4826536,2.1336303,201.0
5.535865,4.512308,2.383941,85.0
6.170354,4.505608,2.4998217,75.0
7.416306,4.489813,2.2884772,38.0
7.323276,4.663017,2.7770107,1.0
6.4306445,4.970826,1.3823315,35.0
7.004565,4.865541,1.4075547,115.0
6.0957837,4.9482455,1.7485207,72.0
7.889722,4.8160453,1.4620298,170.0
8.056528,4.5725527,1.8635678,108.0
5.8141217,4.5658164,2.065184,254.0
6.34298,4.468878,2.107548,133.0
5.4476547,4.4973845,2.3576317,72.0
6.092996,4.5082893,2.479666,119.0
8.437249,4.569499,2.4476972,1.0
6.3807063,4.996509,1.3782113,16.0
6.9302444,4.8789096,1.398555,104.0
6.010455,4.9417157,1.7325767,40.0
7.807338,4.833192,1.4521245,148.0
7.1212554,4.609575,1.7800295,169.0
5.7447577,4.5698075,2.050428,254.0
6.2408957,4.456186,2.0825303,58.0
5.378699,4.4973836,2.3396645,99.0
6.023459,4.5158505,2.4626598,54.0
7.1955523,4.4801517,2.236709,7.0
8.30305,4.564812,2.41664,140.0
6.276781,4.978769,1.362074,1.0
6.8576427,4.8926787,1.3898885,66.0
5.8641376,4.882979,1.6984742,43.0
6.1877975,4.622887,1.6749378,1.0
7.7150345,4.8431745,1.4403019,118.0
5.545534,4.4677286,1.9881243,72.0
6.1345296,4.439012,2.0559156,175.0
5.2955394,4.4844117,2.3152802,71.0
5.9283195,4.503268,2.434946,75.0
6.958491,4.392759,2.170446,1.0
8.113383,4.527607,2.3690526,133.0
6.128883,4.9240203,1.3359796,1.0
6.7995505,4.916094,1.384222,77.0
5.5239315,4.657363,1.606353,133.0
6.230394,4.7156997,1.6948161,1.0
7.6428733,4.864956,1.4323137,119.0
5.465306,4.459762,1.9689959,120.0
6.0613422,4.4445305,2.0404792,224.0
5.2242317,4.480473,2.2960296,71.0
5.838101,4.4931307,2.4091218,90.0
6.974614,4.4646215,2.1844232,112.0
7.9886203,4.5243196,2.3405,103.0
7.516474,4.494582,2.716515,1.0
6.0490236,4.9225082,1.3249925,1.0
6.739843,4.937811,1.3782222,67.0
5.4782844,4.6780014,1.6014813,71.0
6.2363534,4.78199,1.7047552,38.0
7.5608063,4.879577,1.4224082,145.0
6.9813027,4.707864,1.7666441,16.0
5.4249725,4.469508,1.9618912,97.0
6.0372257,4.4707584,2.0394144,66.0
5.7687974,4.4834504,2.388966,86.0
6.8773794,4.4479413,2.160092,84.0
7.857854,4.499619,2.3079402,169.0
7.4330707,4.492594,2.6937342,1.0
6.0500655,4.9710355,1.330486,1.0
6.6942654,4.9531493,1.3735557,75.0
6.2075615,4.806559,1.7030267,16.0
7.489839,4.8837705,1.413142,140.0
7.191411,4.8998313,1.8268788,54.0
7.5778184,4.6061306,1.7824868,1.0
5.3569965,4.470109,1.9471351,96.0
5.953389,4.4671006,2.020252,82.0
5.070952,4.446167,2.2491863,1.0
5.6822195,4.4739747,2.3644016,88.0
6.775104,4.442153,2.1362789,101.0
6.450761,4.4404387,2.5015147,18.0
6.1154275,5.089866,1.3524603,1.0
6.6456237,4.9821434,1.3698891,64.0
5.9863305,4.6965146,1.6494418,1.0
7.4014482,4.8924975,1.4019583,144.0
7.2054706,4.976143,1.8385911,66.0
7.4769096,4.609605,1.765227,10.0
5.303887,4.4824953,1.9378442,75.0
5.875991,4.4672174,2.0032187,87.0
5.6257377,4.487179,2.3524344,92.0
6.7936387,4.5157633,2.1512916,209.0
7.6470275,4.507896,2.2618556,39.0
6.469462,4.5136633,2.5200045,63.0
6.146461,5.1816883,1.3668808,1.0
6.593736,5.008344,1.3655559,63.0
6.146672,4.884184,1.7030267,31.0
7.3099704,4.8981023,1.3901359,112.0
8.158854,4.864053,1.4166961,1.0
7.1788616,5.0246935,1.839846,69.0
7.352967,4.597506,1.7423476,32.0
5.2406282,4.4856043,1.9247276,68.0
5.806481,4.4724007,1.9888467,108.0
5.5441566,4.4796414,2.3297594,100.0
6.7939205,4.5778623,2.16061,254.0
7.5336857,4.5053678,2.2363086,51.0
6.3758445,4.5079193,2.494119,74.0
6.1631227,5.2625504,1.3782113,1.0
6.551177,5.041283,1.3632226,58.0
6.1189113,4.925149,1.7038909,48.0
7.254591,4.9272394,1.385343,89.0
8.002775,4.8397818,1.394353,1.0
7.1790004,5.0924044,1.8482119,65.0
7.2791905,4.6153927,1.73151,123.0
8.383915,4.615182,1.8349884,89.0
5.1833415,4.493154,1.9137971,48.0
5.7615104,4.4957957,1.9829915,168.0
4.8912745,4.4539394,2.2055514,1.0
5.4776187,4.4832387,2.3133829,95.0
6.53888,4.4651804,2.087099,236.0
7.4306273,4.5075974,2.2137673,43.0
6.305713,4.5178614,2.4774783,101.0
6.150755,5.3192663,1.3830181,1.0
6.2388883,4.864794,1.3032242,85.0
6.1394114,5.0053186,1.7185836,33.0
7.168286,4.934532,1.3744789,78.0
8.01271,4.9146905,1.4015994,80.0
7.164302,5.1500077,1.8528131,60.0
5.1333776,4.50653,1.9055992,41.0
5.6952558,4.502125,1.9696841,89.0
4.815981,4.440778,2.183734,1.0
6.4726396,4.4796934,2.0746746,79.0
7.2568274,4.4652486,2.169686,17.0
6.2234163,4.5181265,2.4559069,38.0
7.1022735,4.6039095,2.6241922,1.0
8.488137,4.5544944,2.36271,61.0
6.132001,5.3708262,1.3864516,1.0
5.9433703,4.908685,1.6714808,1.0
7.088644,4.9454703,1.3648931,74.0
7.9245167,4.9295564,1.3913337,59.0
7.0276423,5.1186805,1.8252056,92.0
5.0804925,4.502503,1.8935758,14.0
5.645285,4.5061426,1.9595706,64.0
4.836476,4.5022717,2.2029846,1.0
6.375597,4.456819,2.049826,174.0
7.1303153,4.43421,2.1376271,160.0
6.1224217,4.48869,2.4238582,59.0
6.8758693,4.5040073,2.5474565,1.0
8.200777,4.4494762,2.2873628,92.0
6.1213512,5.412751,1.3898851,1.0
6.0768805,4.847301,1.2798915,34.0
5.4918036,4.581347,1.5483221,44.0
7.05076,4.96855,1.3620173,71.0
7.850915,4.9353886,1.3822757,53.0
8.163449,4.679007,1.8035517,1.0
5.037823,4.5214424,1.8881105,111.0
5.5807996,4.512534,1.9467956,79.0
4.863066,4.5847154,2.228652,1.0
5.245484,4.44754,2.2466178,1.0
6.339601,4.4911857,2.0472376,43.0
7.07935,4.464519,2.1306143,213.0
6.03465,4.4826603,2.3998218,74.0
6.8012633,4.5166245,2.530071,50.0
8.215108,4.524414,2.2994378,134.0
6.100402,5.462968,1.3929752,1.0
6.136995,4.9582734,1.2995577,1.0
5.5286984,4.6710286,1.567336,73.0
6.992135,4.9931836,1.3565853,67.0
7.7863603,4.9634385,1.376237,23.0
8.480646,5.657165,2.0542288,1.0
8.152531,4.7411017,1.8077688,1.0
4.9794993,4.5257425,1.8766335,144.0
5.5179534,4.5195117,1.9345528,85.0
4.69072,4.4773974,2.1612747,1.0
5.197223,4.463156,2.2377996,126.0
6.2157097,4.461955,2.0156589,46.0
7.1148767,4.549438,2.1501503,254.0
5.950232,4.478003,2.3770177,44.0
6.691892,4.505129,2.4994965,34.0
8.076535,4.5141516,2.268043,99.0
6.093625,5.5264072,1.3994988,1.0
6.365708,5.2083845,1.3562227,31.0
6.9526405,5.0312114,1.3549876,62.0
7.730078,4.99622,1.371708,20.0
6.2136893,4.689595,1.6306978,1.0
6.8489256,4.635775,1.6600624,1.0
4.9551997,4.560862,1.8782731,68.0
5.453754,4.524652,1.9217778,84.0
4.6271906,4.472441,2.1445909,1.0
5.1288705,4.4609623,2.2201636,79.0
6.1329794,4.461002,1.9975401,50.0
7.017808,4.549978,2.1291115,254.0
5.8872514,4.4886723,2.3628423,85.0
6.6303,4.5245843,2.486907,55.0
7.926617,4.4956,2.2332673,115.0
7.5461984,4.486537,2.6306245,1.0
6.063125,5.5685945,1.4005288,1.0
6.135064,5.085183,1.3128906,4.0
6.9193025,5.073625,1.3546681,61.0
7.667069,5.0241714,1.3659713,20.0
6.1174283,4.677288,1.6127111,1.0
8.473622,5.8074646,2.0702844,118.0
8.048575,4.8168693,1.7978011,1.0
4.877328,4.5458455,1.8591448,137.0
5.3734345,4.515569,1.9031476,75.0
4.5517645,4.4549017,2.1221316,1.0
5.042186,4.441831,2.1943393,69.0
6.024124,4.4396315,1.9706206,60.0
6.93074,4.555836,2.1110785,254.0
5.792819,4.474216,2.3357244,97.0
6.5341444,4.519654,2.4611287,51.0
7.8024554,4.489923,2.2057366,89.0
7.4556737,4.496162,2.6085436,1.0
6.065442,5.6415615,1.4094559,1.0
6.027313,5.0604243,1.2962245,1.0
6.1871,6.0380654,1.9287769,1.0
6.8683033,5.1028256,1.3508338,64.0
7.6122603,5.056981,1.3617443,20.0
6.1727853,4.7817273,1.6357174,37.0
8.451468,5.8706226,2.073897,66.0
4.71751,4.4618974,2.5426702,1.0
4.8612247,4.588324,1.8640635,69.0
5.299333,4.510638,1.8866465,66.0
4.5183196,4.478062,2.1195648,1.0
5.005656,4.4658675,2.19056,60.0
5.9837523,4.468114,1.9664792,38.0
6.83258,4.553293,2.0895388,254.0
5.70927,4.466989,2.3129203,77.0
6.4336205,4.5104213,2.4335518,25.0
7.7054634,4.4985824,2.1859338,37.0
7.401193,4.5268803,2.5992465,1.0
6.0499086,5.6985226,1.4142627,1.0
6.1053076,5.191168,1.3205571,40.0
6.1711836,6.098808,1.9358631,1.0
6.8361063,5.1458797,1.3508338,70.0
7.563913,5.0937033,1.358725,21.0
6.193288,4.8603935,1.6495211,43.0
8.448107,5.947227,2.0823262,37.0
4.6920595,4.49403,2.5441465,1.0
7.5834446,4.6677074,1.7050248,1.0
4.7796044,4.568103,1.8432957,126.0
4.464772,4.4807863,2.1073728,1.0
4.950663,4.473133,2.178593,45.0
5.8894506,4.455324,1.9442189,33.0
6.6093707,4.4654684,2.0289273,161.0
5.634969,4.4660063,2.2938144,91.0
6.3365893,4.5023084,2.4071736,55.0
7.8054533,4.6233563,2.2231245,83.0
7.241069,4.491274,2.5521793,1.0
6.042433,5.7636905,1.4211296,1.0
6.0665803,5.2242937,1.3192238,61.0
5.968523,5.3698564,1.742351,1.0
6.791103,5.1791224,1.3482776,56.0
7.5333943,5.1422386,1.3590269,21.0
6.1320715,4.8747907,1.6411552,36.0
7.2557607,5.1797605,1.7921201,63.0
4.6734943,4.5186834,2.545623,51.0
4.7635465,4.595936,1.8454818,60.0
5.223174,4.5459285,1.8770652,1.0
4.379942,4.436861,2.0765717,1.0
4.8971834,4.4670887,2.1641061,19.0
5.837752,4.4594884,1.9338652,53.0
6.5161624,4.44763,2.006386,141.0
6.2485204,4.4844575,2.3813953,41.0
7.7935576,4.6660914,2.2260225,113.0
7.168013,4.492699,2.533585,1.0
6.0463557,5.822243,1.4286833,1.0
6.092605,5.2966866,1.3305569,37.0
5.9228683,5.3795934,1.7363011,1.0
6.7728667,5.2159004,1.3495556,71.0
7.4862566,5.16202,1.3547999,20.0
6.0862017,4.88521,1.6348808,73.0
7.245598,5.2241755,1.7957326,80.0
4.5788064,4.4827304,2.5087132,31.0
8.322827,4.6501718,1.740196,30.0
4.719484,4.610939,1.83947,83.0
5.1626086,4.5507054,1.8653548,9.0
4.374381,4.4874253,2.0874803,80.0
4.82707,4.4592576,2.1452103,15.0
5.782176,4.4747214,1.924547,73.0
6.446614,4.4599495,1.9933621,141.0
6.159923,4.480022,2.3580148,28.0
7.308517,4.4369116,2.093199,163.0
8.496041,4.5515323,2.259279,48.0
7.1186786,4.5242534,2.526031,1.0
6.0392084,5.8890767,1.4358935,1.0
6.0814557,5.354354,1.3355567,18.0
6.381051,4.9769635,1.2757444,69.0
7.4423137,5.2010536,1.3526863,21.0
6.084158,4.9468713,1.6428283,42.0
7.236401,5.286881,1.8017535,31.0
4.532128,4.4930315,2.4983785,114.0
7.2704983,4.6494384,1.6513525,1.0
4.691783,4.6418586,1.8400165,82.0
5.100749,4.553622,1.853112,10.0
4.343481,4.5120835,2.086197,91.0
4.792006,4.4830365,2.142061,63.0
5.7266407,4.4894333,1.9152286,81.0
6.3724046,4.4682493,1.9788353,145.0
5.364778,4.403988,2.213076,1.0
6.0854826,4.4848022,2.34003,46.0
7.2557416,4.467422,2.085954,101.0
8.325246,4.527971,2.2208476,83.0
7.0451393,4.5397577,2.5097609,1.0
6.0160737,5.9407835,1.439327,1.0
6.102275,5.4408817,1.3478897,5.0
6.145577,4.8548794,1.2335666,136.0
7.4030237,5.2431555,1.3514786,19.0
5.7034574,4.6956415,1.5457836,34.0
7.155628,4.639296,1.6314172,124.0
8.198893,4.7172675,1.7262907,1.0
4.6571054,4.665783,1.8378304,79.0
5.053396,4.5688286,1.8461922,27.0
4.2994375,4.5227594,2.0784967,69.0
4.722282,4.47402,2.1231651,41.0
6.28886,4.4690895,1.9613031,156.0
5.360352,4.4571404,2.2229373,68.0
5.983652,4.4683504,2.311254,28.0
7.1354775,4.455139,2.0589063,191.0
8.2079525,4.5314827,2.1967702,70.0
6.9892836,4.566074,2.4998827,1.0
6.1105094,5.5173364,1.3575561,1.0
7.369934,5.2895665,1.3514786,9.0
5.6753397,4.732641,1.546202,91.0
6.255612,4.69525,1.5681437,1.0
4.402552,4.475188,2.4570396,58.0
4.6411605,4.7086954,1.8432957,89.0
5.020313,4.5965967,1.8445953,57.0
4.2748117,4.55384,2.0804217,95.0
4.8094816,4.6136327,2.1760733,8.0
6.218152,4.4780765,1.9477782,145.0
5.317724,4.4784336,2.2167742,58.0
5.8761725,4.44621,2.28008,23.0
7.0451283,4.460283,2.0405526,199.0
8.05356,4.5128593,2.162506,92.0
6.77886,4.4889903,2.4336402,1.0
7.6519732,4.492182,2.5654547,1.0
6.1749086,5.6458673,1.3802222,1.0
6.107043,4.95043,1.2383596,135.0
7.3237414,5.326494,1.3490632,9.0
6.233801,4.7403717,1.5701507,1.0
4.398874,4.5281725,2.4710653,52.0
4.8788114,4.517887,2.5563085,1.0
4.6047955,4.7308497,1.840563,83.0
4.9544754,4.5940785,1.8307557,64.0
4.2178836,4.549955,2.0663047,71.0
4.7776675,4.6411233,2.1748137,1.0
6.1491485,4.4874897,1.9347543,132.0
5.2374973,4.4671535,2.1945865,73.0
5.8041134,4.4495006,2.2626946,1.0
6.9713054,4.4749923,2.0270286,213.0
7.9285197,4.508764,2.1361136,68.0
6.6886578,4.4897413,2.4109783,1.0
7.5591984,4.5020194,2.5435183,1.0
6.172669,5.715288,1.3878887,1.0
7.3108544,5.387606,1.3529882,17.0
6.2552156,4.8187723,1.5833967,1.0
4.3016973,4.4695854,2.427512,37.0
4.767369,4.457117,2.508362,1.0
8.430256,5.6796565,1.9511504,1.0
4.5811195,4.7511077,1.8400165,73.0
4.9271255,4.612122,1.8286265,45.0
4.173416,4.544591,2.0547543,94.0
4.566791,4.479423,2.087263,1.0
6.092014,4.4900913,1.9232332,136.0
5.154549,4.4382167,2.1680846,38.0
5.7483044,4.4500356,2.2489061,1.0
6.886738,4.46645,2.0081918,114.0
7.8109164,4.4910135,2.109721,72.0
6.577298,4.459762,2.377857,1.0
7.4934406,4.5109677,2.5283315,1.0
6.2193084,5.8128114,1.4048882,1.0
6.2092996,6.0608287,1.8858202,1.0
6.1235256,5.0766854,1.2533774,26.0
7.2853847,5.421998,1.3529882,9.0
4.2314177,4.451925,2.4031515,10.0
4.7026277,4.4525075,2.4887478,1.0
6.8452315,4.670037,1.5842623,1.0
4.561756,4.7909765,1.8443887,84.0
4.89805,4.6429887,1.8286265,30.0
4.142244,4.5679083,2.0534708,58.0
4.469654,4.440024,2.0551403,1.0
6.024819,4.49942,1.9107101,142.0
5.1051073,4.4516945,2.15884,73.0
5.709698,4.4778523,2.2447095,1.0
6.8002543,4.471102,1.9908041,109.0
7.716915,4.501915,2.091663,71.0
6.476725,4.450954,2.3511276,1.0
7.3911324,4.513125,2.5030203,12.0
6.1141376,5.134162,1.2581704,1.0
7.2701488,5.4819074,1.3566115,8.0
6.2157316,4.898138,1.5870092,1.0
4.2033625,4.4784236,2.4031515,1.0
4.6543226,4.4626856,2.477851,1.0
8.317925,5.757134,1.941566,17.0
4.5236826,4.8111105,1.8411095,83.0
4.854832,4.6603637,1.8233036,5.0
4.1109433,4.591014,2.0521874,97.0
4.449724,4.4760714,2.0589194,54.0
5.9608436,4.510411,1.8991889,152.0
5.0357876,4.447034,2.1409667,78.0
5.6410236,4.481706,2.2285233,39.0
6.699476,4.465121,1.9690694,108.0
7.5694346,4.4802246,2.0587878,68.0
6.3624177,4.4311795,2.3191683,1.0
7.316875,4.531289,2.487271,1.0
6.151481,5.895949,1.4062215,1.0
5.943696,5.0544486,1.2287737,1.0
7.227693,5.5214953,1.3551018,8.0
6.0344625,4.8176923,1.5476727,1.0
4.1537375,4.4814987,2.390602,1.0
4.5980306,4.4646707,2.4625952,1.0
8.417988,5.905373,1.9741528,94.0
4.5103254,4.8578186,1.8482144,80.0
4.8185225,4.6840773,1.8206421,1.0
4.4095054,4.4917884,2.0532506,38.0
5.8923497,4.5172553,1.886165,154.0
4.996432,4.4684052,2.136036,118.0
5.5680585,4.481299,2.2105381,18.0
6.624731,4.4755006,1.9550625,100.0
7.457615,4.477813,2.0356364,80.0
6.2673454,4.4234385,2.2941823,1.0
6.1143146,5.934483,1.4062215,1.0
6.06705,5.226095,1.2620047,150.0
7.2132187,5.5824842,1.3590269,1.0
5.7720127,4.6688533,1.4866613,1.0
4.064228,4.440117,2.3544307,141.0
4.58988,4.513006,2.4734921,1.0
8.420656,5.986661,1.9837371,89.0
4.479714,4.886062,1.8482144,77.0
4.793131,4.718305,1.822239,1.0
4.0194187,4.6036706,2.0348618,5.0
4.375893,4.513971,2.0507312,86.0
5.797955,4.5032988,1.8646253,110.0
4.92466,4.4599833,2.11693,69.0
5.4716063,4.4609303,2.1829612,11.0
6.5373335,4.4763136,1.9371917,126.0
7.366097,4.4862723,2.0180414,73.0
6.214571,4.444851,2.284885,1.0
7.082633,4.510921,2.4259617,1.0
6.0756583,5.300559,1.2709515,40.0
7.234111,5.6714854,1.3698965,1.0
5.8397775,4.7842336,1.5123503,80.0
4.071018,4.504294,2.3751001,95.0
4.5097737,4.490643,2.4451602,1.0
8.40355,6.054408,1.9887209,62.0
7.25707,4.661829,1.5711366,1.0
4.45536,4.921263,1.850947,77.0
4.774346,4.7591834,1.8264973,1.0
4.0002704,4.640345,2.0399954,1.0
4.3434935,4.537275,2.0488417,109.0
5.1829453,4.5430727,1.81221,1.0
4.875566,4.4714828,2.107685,92.0
5.4213486,4.477061,2.1739688,44.0
6.486797,4.5017514,1.9304297,72.0
7.2797427,4.4968157,2.0018353,74.0
6.1803346,4.4793015,2.2825606,1.0
6.8797483,4.443308,2.3652148,17.0
6.073235,5.366159,1.2776617,114.0
7.2355556,5.746254,1.3771429,1.0
5.78089,4.7971363,1.5047239,35.0
4.041101,4.5137053,2.3699327,90.0
4.4714227,4.494726,2.4357162,1.0
8.324208,6.056885,1.976453,123.0
7.0698404,4.5893154,1.5345438,1.0
4.43596,4.946512,1.8525865,85.0
4.770949,4.800716,1.8339494,1.0
3.9366994,4.6100273,2.0181777,1.0
4.299783,4.5343494,2.0381339,100.0
5.1557074,4.5623083,1.8101392,85.0
4.8154593,4.458095,2.090428,80.0
5.356121,4.4660296,2.1559837,83.0
6.397298,4.4841905,1.9096609,115.0
7.1873956,4.4869366,1.9819252,83.0
6.8522935,4.471499,2.3629649,64.0
5.2264953,6.102449,1.7901523,1.0
6.0728707,5.4171233,1.2830937,127.0
5.7281146,4.79924,1.4966961,16.0
3.9979434,4.522246,2.3610744,109.0
4.4142704,4.4935803,2.419734,1.0
8.281255,6.1055636,1.9753029,85.0
7.1741166,4.720879,1.564184,55.0
5.048202,4.509915,2.5400631,86.0
4.4136896,4.984396,1.8564122,74.0
4.742046,4.8319697,1.8344817,1.0
3.9186018,4.647742,2.023953,1.0
4.2686048,4.558513,2.0368743,95.0
5.1269403,4.594612,1.8101392,76.0
5.4078536,4.353588,1.7614356,17.0
4.7693615,4.47129,2.082416,100.0
5.2972665,4.4738307,2.1433942,161.0
6.337411,4.5017357,1.900001,85.0
7.0948505,4.4915743,1.9638672,73.0
5.971167,4.427997,2.2221289,1.0
6.76955,4.4785957,2.3438408,105.0
5.209394,6.1605387,1.7976815,1.0
6.0767193,5.489678,1.2914014,129.0
3.9621449,4.53885,2.356645,86.0
4.348198,4.482562,2.3986669,1.0
4.9755306,4.5012813,2.5173013,154.0
4.381023,5.010577,1.8558657,80.0
4.733125,4.883755,1.8429985,1.0
3.9110484,4.6985493,2.0355034,1.0
4.2114267,4.554674,2.0230174,101.0
5.0594497,4.591567,1.7961618,43.0
4.6999,4.4617395,2.0639265,75.0
5.234166,4.477362,2.1290064,184.0
6.2445416,4.4948087,1.8801982,92.0
7.000893,4.494181,1.945346,86.0
5.866885,4.4077406,2.1930752,1.0
6.6438794,4.456075,2.30953,78.0
6.0755343,5.558485,1.2987505,151.0
3.9262955,4.5551825,2.352216,99.0
4.28244,4.4708924,2.3775995,1.0
6.236287,4.713837,1.4926361,15.0
4.9320316,4.5185184,2.5094771,39.0
4.3632345,5.054066,1.8618774,77.0
4.698335,4.909231,1.8414016,23.0
3.9161866,4.765587,2.0541124,1.0
4.1801567,4.5782504,2.0217576,103.0
5.023408,4.6167083,1.7935734,26.0
5.34823,4.4175134,1.7599329,11.0
4.6580987,4.4779525,2.057763,96.0
5.207377,4.511406,2.1296058,158.0
6.1707916,4.5006685,1.8661915,119.0
6.910453,4.4979005,1.927751,78.0
5.8269186,4.4352093,2.1884265,1.0
6.5919013,4.4816065,2.3010929,80.0
6.072278,5.6261473,1.3057802,151.0
3.8927975,4.574084,2.3492632,99.0
4.24013,4.4828663,2.3696084,1.0
6.1909933,4.7409525,1.4888023,1.0
6.8678045,4.7079277,1.5155153,1.0
4.8475204,4.4971223,2.4803135,30.0
4.3301497,5.079913,1.8613309,74.0
4.674039,4.9456406,1.844063,25.0
4.1372757,4.588962,2.0148292,91.0
4.9999423,4.653461,1.7956442,42.0
5.333767,4.4621725,1.7644413,1.0
4.594533,4.472513,2.0417387,68.0
6.106563,4.512726,1.8550826,66.0
6.8316307,4.508136,1.9133971,77.0
5.528249,4.2617965,2.0844142,1.0
6.221428,6.0814915,1.8264605,1.0
3.8520715,4.5841813,2.3418813,91.0
4.190181,4.48634,2.3572586,1.0
6.1223884,4.749577,1.479218,1.0
8.463665,5.8745313,1.8832744,1.0
4.764833,4.4761286,2.4518614,49.0
4.315427,5.12768,1.8689822,68.0
4.6455116,4.9777217,1.8451276,49.0
4.0956926,4.6007304,2.0085306,110.0
4.9579883,4.672822,1.790985,13.0
5.3500524,4.533019,1.7794688,1.0
4.559587,4.494593,2.0386572,99.0
5.030153,4.470379,2.079248,33.0
6.756194,4.519715,1.8999693,96.0
5.639806,4.4052196,2.1378732,189.0
6.3427544,4.4305058,2.2324715,10.0
6.101054,5.797448,1.3281472,46.0
6.1349525,5.2478485,1.1990026,1.0
6.169227,6.1066704,1.8222775,1.0
3.8161006,4.599686,2.3374522,80.0
4.159374,4.509848,2.3558056,1.0
5.9722934,4.6930294,1.4493148,1.0
8.462017,5.952412,1.8913249,110.0
4.7123094,4.4827123,2.4390578,73.0
4.294149,5.168044,1.8739009,69.0
4.6128335,5.005398,1.8445953,43.0
3.8069477,4.814718,2.0438454,1.0
4.059157,4.617844,2.0047514,91.0
4.9647613,4.7386684,1.8044447,36.0
5.284639,4.535128,1.7669458,1.0
4.5084376,4.5002294,2.0281796,71.0
4.966414,4.4700923,2.0642605,46.0
5.986108,4.540843,1.8352798,60.0
6.680884,4.530525,1.8865415,67.0
5.7991867,4.589536,2.2105074,83.0
6.1986556,4.388515,2.1908484,46.0
6.0787005,5.8493915,1.3313425,55.0
6.122824,5.3043633,1.2032297,87.0
6.151407,6.166129,1.828552,1.0
3.8002586,4.624819,2.3411431,89.0
4.1090636,4.4978533,2.339097,146.0
5.9715934,4.73826,1.4546821,1.0
8.432268,5.9910865,1.8909589,71.0
4.713984,4.5269504,2.45115,97.0
5.082867,4.3821564,2.4564486,1.0
4.2734017,5.19269,1.8755405,66.0
4.591803,5.0299196,1.84566,11.0
3.7923572,4.843071,2.0483372,1.0
4.032346,4.6312113,2.0022318,113.0
4.9160194,4.736466,1.7946087,13.0
5.2426696,4.54229,1.7599329,1.0
4.463134,4.497039,2.0170858,91.0
4.9169726,4.4678698,2.0522707,40.0
6.6031833,4.523614,1.8703355,100.0
5.605945,4.478953,2.143684,70.0
6.1982408,4.432135,2.1981606,77.0
6.0680227,5.8945203,1.3351768,30.0
6.1022344,5.337051,1.2041354,104.0
3.7711253,4.6486053,2.3411431,68.0
4.069447,4.5111675,2.3325589,84.0
5.9554443,4.786791,1.4581325,50.0
4.6213193,4.493727,2.4170074,74.0
5.1416106,4.488967,2.4989204,137.0
4.2406907,5.219438,1.8755405,66.0
4.5756497,5.075808,1.8520474,46.0
3.7664666,4.8728137,2.050904,1.0
3.9957142,4.6478434,1.9984528,90.0
4.9082217,4.788912,1.8028917,37.0
5.231536,4.5904145,1.765944,159.0
4.43479,4.5249925,2.0170858,72.0
4.8719077,4.4832234,2.0450766,24.0
6.0628114,4.705491,1.8753684,1.0
6.518595,4.5263166,1.8541296,47.0
5.5227785,4.4693866,2.122184,34.0
6.128227,4.440698,2.1829739,93.0
5.288127,6.121277,1.7557472,1.0
6.0421,5.9436336,1.3377331,65.0
6.104179,5.406659,1.2113818,110.0
3.746471,4.678027,2.344096,44.0
4.032314,4.5269365,2.3274736,98.0
5.903986,4.806708,1.4527652,71.0
6.4983788,4.746654,1.4635534,3.0
4.56511,4.4950447,2.40207,96.0
5.086547,4.497667,2.4856915,88.0
4.2114105,5.250493,1.8771801,61.0
4.55267,5.114511,1.8557734,45.0
3.715183,4.8692064,2.0393536,1.0
3.9676654,4.6743007,1.9990827,73.0
4.8684444,4.8101234,1.7992679,13.0
4.387808,4.5335674,2.0084574,86.0
4.8184447,4.4904084,2.0342855,47.0
5.3676043,4.399299,2.0722117,169.0
6.0459523,4.4395037,2.1632874,91.0
5.2292256,6.130662,1.7488331,1.0
6.1084385,5.4791346,1.2192321,85.0
3.7238915,4.7102466,2.348525,23.0
3.9877315,4.5340466,2.3180296,99.0
5.8283367,4.8061223,1.441264,97.0
6.4177575,4.7500877,1.4518436,1.0
4.5011516,4.4878907,2.3828647,57.0
5.016173,4.492141,2.4648037,110.0
4.1961837,5.2995286,1.8853779,68.0
4.530661,5.154569,1.8600318,44.0
3.749184,4.9789186,2.0759299,62.0
3.9443383,4.706392,2.0022318,110.0
4.88442,4.887212,1.8168691,39.0
4.3500648,4.551389,2.0041432,86.0
4.7706523,4.502321,2.0258925,36.0
5.9713902,4.755829,1.8652254,1.0
5.7247014,4.75433,2.2244532,83.0
5.967022,4.439735,2.1447258,107.0
6.1076264,5.5478983,1.2261765,68.0
3.737491,4.789381,2.3765764,1.0
3.9542584,4.5534015,2.3151238,103.0
5.8025336,4.8464346,1.4424142,122.0
6.3341994,4.750345,1.4394021,1.0
4.440087,4.482776,2.365082,52.0
4.9655676,4.5034842,2.4536636,60.0
4.1746054,5.340983,1.8908432,44.0
4.4994526,5.1843863,1.8605641,44.0
3.7279513,5.0160933,2.081705,58.0
3.9195495,4.7369156,2.0047514,90.0
4.823851,4.8874683,1.8054801,21.0
4.3096685,4.56614,1.9985962,85.0
4.711833,4.5032988,2.0127037,10.0
5.9112453,4.7688017,1.8555655,115.0
5.307515,4.4626937,2.0704684,75.0
5.796185,4.3700824,2.0924158,202.0
6.093065,5.6048527,1.2304035,31.0
3.7186186,4.8275332,2.3839583,1.0
3.9146113,4.5654626,2.3085856,97.0
5.777949,4.887884,1.4439477,104.0
6.2603054,4.7568555,1.4291561,55.0
4.372751,4.4703703,2.3437428,88.0
4.144477,5.371687,1.8924828,62.0
4.478119,5.225696,1.8653548,42.0
3.7019377,5.047073,2.0849135,27.0
3.896944,4.7702456,2.0085306,88.0
4.8024573,4.9273925,1.8091038,19.0
4.271845,4.583356,1.994282,87.0
4.6655674,4.51562,2.0049102,39.0
5.8871636,4.8107767,1.8574976,159.0
5.479932,4.6677704,2.1506567,67.0
5.8297515,4.452845,2.1149147,225.0
6.096877,5.679315,1.2385558,30.0
3.6834817,4.8287053,2.3758383,1.0
3.8736773,4.5611997,2.2969625,103.0
5.760808,4.920173,1.4454812,101.0
6.22219,4.7743745,1.4254967,35.0
4.337376,4.476114,2.3359187,90.0
4.8192396,4.46887,2.4049256,9.0
5.506059,4.4860444,2.5225952,1.0
4.134242,5.411077,1.8995875,72.0
4.463459,5.2584696,1.869613,42.0
3.7645488,5.1842937,2.1349654,1.0
3.8780181,4.7929716,2.01042,96.0
4.789886,4.9611187,1.8132453,11.0
5.1561475,4.803693,1.7884854,1.0
4.22319,4.573991,1.9813392,86.0
4.627809,4.521606,1.9977162,19.0
5.894303,4.863249,1.8671575,118.0
6.192548,4.5804725,1.7985662,1.0
5.360895,4.6096654,2.1117246,60.0
5.775198,4.4545727,2.1025403,213.0
6.113354,5.748509,1.2476138,1.0
3.6786704,4.885993,2.3928168,134.0
3.84374,4.5840244,2.296236,104.0
5.7312613,4.95756,1.4458646,100.0
6.210735,4.8278074,1.4298879,14.0
4.2705293,4.4626355,2.3145795,29.0
4.7581687,4.468361,2.3882153,1.0
4.5079784,4.426963,2.6859994,1.0
5.4184027,4.4712763,2.4948063,139.0
4.105931,5.4446435,1.9023201,42.0
4.4278455,5.2834625,1.8685485,41.0
3.6912572,5.1507444,2.111223,1.0
3.8644807,4.8379526,2.0192382,98.0
4.7665935,4.9995294,1.8163514,35.0
5.11739,4.828047,1.7854799,1.0
4.1892586,4.5947948,1.978874,80.0
4.584342,4.535879,1.9911216,10.0
5.887405,4.9201636,1.8748853,51.0
5.127408,4.4642024,2.029212,53.0
5.7137513,4.4648657,2.090166,205.0
6.0900307,5.7990456,1.2503312,1.0
3.660039,4.925462,2.4009368,49.0
3.8220208,4.616673,2.3005948,106.0
5.722094,5.0129337,1.4516151,142.0
6.140033,4.8352113,1.4203737,1.0
4.2411265,4.4880166,2.313868,21.0
4.724549,4.4930177,2.3854303,1.0
4.4565563,4.431963,2.6717532,1.0
5.383001,4.4991784,2.4914174,121.0
4.084225,5.487348,1.9083319,79.0
4.405662,5.3245144,1.8733392,42.0
3.669709,5.189337,2.1176398,1.0
3.8422687,4.8725452,2.023647,98.0
4.7311263,5.0251484,1.8147984,16.0
4.1374745,4.595498,1.9677801,83.0
4.527357,4.536323,1.9785322,42.0
5.040561,4.4442616,2.005388,32.0
5.6795526,4.4959297,2.0879161,69.0
6.119094,5.9001656,1.26422,25.0
3.7941222,4.6420345,2.3013213,101.0
6.091048,4.859029,1.4159826,22.0
4.192511,4.4926424,2.3024871,31.0
4.6555896,4.483724,2.3645427,1.0
4.403952,4.435193,2.6567156,1.0
5.3202424,4.5036335,2.4751508,124.0
4.072354,5.543979,1.9192624,81.0
4.385585,5.368474,1.8791944,42.0
3.6381102,5.2138486,2.1182814,1.0
3.824458,4.9130254,2.0305758,100.0
4.6981483,5.0533566,1.8142806,1.0
4.10474,4.6171255,1.9659312,82.0
4.4866724,4.552487,1.9731367,46.0
5.2120757,4.465386,1.6734766,90.0
5.0766,4.5333967,2.0315363,6.0
5.5671525,4.4645247,2.0564177,71.0
6.053544,5.910939,1.2581813,1.0
5.3976994,6.0965204,1.7072461,1.0
3.6770487,5.08125,2.4548252,5.0
3.7754564,4.6787977,2.3078592,99.0
6.045072,4.884886,1.4123232,21.0
4.035462,4.3782606,2.229934,157.0
4.5923204,4.478962,2.3464398,1.0
4.3372917,4.423558,2.6329722,1.0
5.2533674,4.5037923,2.4568508,104.0
5.822127,4.477431,2.5311227,1.0
4.039689,5.572579,1.9203554,80.0
4.352982,5.3974204,1.8797266,42.0
3.6341472,5.2788234,2.135607,1.0
3.7935133,4.9369583,2.0305758,106.0
4.678025,5.0956182,1.8189398,1.0
4.0693965,4.635655,1.9628496,75.0
4.441959,4.56423,1.9659427,50.0
5.2848024,4.5861096,1.7068032,169.0
6.107779,4.7596755,1.8082898,1.0
5.0395226,4.557477,2.02805,1.0
5.527046,4.489769,2.0519178,85.0
5.363138,6.134742,1.7085009,1.0
3.652577,5.1148663,2.4599924,1.0
3.757644,4.716963,2.3151238,99.0
6.023409,4.9302197,1.4145188,38.0
4.11191,4.5186243,2.2889724,135.0
4.5400014,4.484089,2.3339074,26.0
4.3042846,4.4454613,2.6298063,1.0
5.202291,4.516906,2.4460063,71.0
5.738654,4.4711432,2.5067105,16.0
4.0202026,5.6198034,1.9280068,67.0
4.333446,5.442721,1.8861141,41.0
3.6348069,5.3518047,2.1561413,1.0
3.777395,4.9803085,2.0387638,87.0
4.6575556,5.137826,1.823599,1.0
4.0339823,4.6539226,1.9597679,57.0
4.3986015,4.5769634,1.9593482,38.0
5.266062,4.6282225,1.7101842,64.0
6.0945864,4.811175,1.8133831,1.0
4.97138,4.552743,2.0117798,1.0
5.463074,4.495242,2.0384185,91.0
3.6476603,5.159404,2.47328,140.0
3.7434878,4.744831,2.320209,97.0
5.9773254,4.939821,1.40903,62.0
4.073114,4.518455,2.279014,124.0
4.52548,4.512031,2.3373885,1.0
4.29477,4.4775877,2.6369295,1.0
5.127317,4.49408,2.4202507,124.0
4.0069633,5.6575646,1.9345651,80.0
4.312542,5.4691224,1.8882433,38.0
3.6295338,5.398805,2.1683333,1.0
3.7504494,4.9935117,2.0368743,95.0
4.6345787,5.1611586,1.8241166,1.0
4.014476,4.675776,1.9610006,68.0
4.355864,4.575597,1.9497563,13.0
6.106913,4.867643,1.8240327,1.0
4.877003,4.508345,1.9815639,1.0
5.3604407,4.4537144,2.0074825,82.0
3.6342254,5.209723,2.4865675,64.0
3.7285504,4.7873197,2.329653,94.0
5.9688354,4.9961514,1.4145188,81.0
4.0384526,4.536956,2.2754576,120.0
4.454685,4.4978843,2.3151083,1.0
5.055471,4.4873533,2.3992395,89.0
5.607757,4.4694805,2.4704223,16.0
3.992188,5.7126527,1.9449489,72.0
4.291168,5.5128074,1.8940985,18.0
3.633053,5.478452,2.1914341,84.0
3.7485201,5.05653,2.0532506,73.0
4.619943,5.210465,1.8313642,1.0
4.960111,5.0303607,1.7929937,1.0
3.9923713,4.7096395,1.9646986,61.0
4.3322744,4.608419,1.9521543,37.0
5.966984,4.8181987,1.7906947,88.0
4.856939,4.5467715,1.9850504,1.0
5.2970214,4.4577513,1.9939833,102.0
3.6570153,5.3137836,2.5256917,32.0
3.7155075,4.832754,2.34055,88.0
5.9403324,5.036091,1.4152508,75.0
3.9963443,4.546751,2.2676332,122.0
4.396086,4.495053,2.2990944,35.0
4.9727488,4.469806,2.3728063,123.0
5.5545335,4.484535,2.4592059,80.0
3.9649158,5.7503195,1.9493212,67.0
4.258804,5.5427113,1.8951632,8.0
3.7178009,5.081511,2.0538805,110.0
4.6124797,5.268534,1.8417178,1.0
4.933826,5.06696,1.7949973,1.0
3.9505374,4.7200007,1.9585353,69.0
4.2693653,4.599299,1.9365673,13.0
6.0060215,4.912075,1.811994,61.0
4.821351,4.5705943,1.9821451,1.0
5.241086,4.467372,1.9832963,98.0
3.6952517,4.8693295,2.347088,101.0
5.923524,5.0860853,1.41891,79.0
3.960375,4.563276,2.2633655,120.0
4.31679,4.470153,2.2719405,5.0
4.93069,4.4882536,2.3660283,63.0
5.5086675,4.505054,2.4512885,122.0
3.9556444,5.8149643,1.9629842,64.0
4.2379274,5.5877523,1.9015507,8.0
3.60174,5.582683,2.2151766,78.0
3.7047746,5.1308722,2.064588,91.0
4.5591397,5.2739687,1.8334349,1.0
4.9140067,5.1103864,1.7995057,1.0
3.9389102,4.7667894,1.9677801,36.0
4.2442646,4.6302404,1.9383658,35.0
5.9780426,4.9521894,1.8129201,98.0
4.7829027,4.5914907,1.9780775,1.0
5.183783,4.4752164,1.9720469,89.0
3.679171,4.911791,2.356532,86.0
5.885502,5.1180577,1.4174463,71.0
3.9134524,4.566717,2.2526958,108.0
4.2678447,4.4755464,2.2608001,1.0
5.433615,4.5011687,2.4301753,83.0
4.6239834,4.427593,2.6404414,48.0
3.961728,5.9037266,1.9848452,64.0
4.2062144,5.6188893,1.9031476,8.0
3.6263008,5.699678,2.2530363,67.0
3.6901674,5.1787267,2.0746658,62.0
4.563409,5.346701,1.8489654,1.0
3.907684,4.789966,1.9671638,57.0
4.204808,4.6455326,1.9335698,10.0
5.857183,4.9148507,1.7851384,39.0
4.6978674,4.5665874,1.9542534,1.0
5.133833,4.4888134,1.9636098,82.0
5.506115,6.105169,1.6500276,1.0
3.667153,4.960221,2.368882,105.0
5.8754125,5.1743717,1.4229352,77.0
3.878669,4.5840607,2.2491393,101.0
4.0797024,4.333543,2.1744642,1.0
4.7874937,4.4687014,2.3233283,30.0
5.3457828,4.4856353,2.403124,105.0
4.573622,4.4346514,2.6273255,71.0
3.9488757,5.965469,1.9974152,45.0
4.1961293,5.6792464,1.914858,8.0
3.6715739,5.8525653,2.3050132,28.0
4.538409,5.385634,1.8525891,1.0
3.9000938,4.8426533,1.978874,39.0
4.183193,4.6803713,1.9371668,15.0
5.4383636,4.6237254,1.664288,120.0
4.7003546,4.6269894,1.9676182,1.0
5.08968,4.5070324,1.9574226,83.0
5.8413143,5.2098804,1.4225693,72.0
3.8354676,4.5910773,2.2406037,131.0
4.161299,4.4754395,2.2336462,143.0
4.7238727,4.464977,2.305706,1.0
5.2756686,4.4837995,2.3839905,110.0
4.523356,4.441252,2.61421,107.0
3.9532058,6.0547175,2.0192761,59.0
4.1797485,5.7319245,1.9239069,8.0
3.6783688,5.9465284,2.3332477,1.0
3.6889346,5.316502,2.1118276,11.0
4.500787,5.4095774,1.8510361,1.0
4.8748727,5.2644463,1.8215462,1.0
3.8731275,4.871542,1.9807229,29.0
4.149902,4.7022834,1.9353683,1.0
5.4254627,4.671723,1.6693814,65.0
4.6157913,4.6008663,1.9437941,1.0
4.9509444,4.4405847,1.9141123,181.0
5.8401327,5.258339,1.4284241,67.0
3.8220973,4.61921,2.2455828,81.0
4.137614,4.4922495,2.2322538,80.0
4.6688476,4.4546075,2.2887616,1.0
5.2200055,4.479204,2.3681555,95.0
4.4827814,4.442971,2.602637,113.0
4.1606226,5.762476,1.927633,7.0
3.6875935,5.3681746,2.1256845,1.0
4.4825907,5.439693,1.8541422,1.0
4.7489176,5.1777763,1.7829753,1.0
3.8536444,4.8942356,1.9825718,51.0
4.145343,4.7418413,1.9437612,1.0
4.5846457,4.613035,1.9397266,1.0
5.0269766,4.551168,1.9523604,207.0
3.6624062,5.1363697,2.4233663,1.0
5.799697,5.2883244,1.4265945,66.0
3.7776895,4.6242623,2.2363358,120.0
4.0953794,4.5029473,2.2245948,128.0
4.640766,4.483855,2.2887616,80.0
5.1517544,4.477355,2.3496816,97.0
4.4340067,4.4500685,2.5902927,70.0
4.1445513,5.8167076,1.9372143,1.0
3.6548615,5.3928065,2.1263144,1.0
4.4543977,5.4752607,1.8567306,1.0
4.810174,5.3105717,1.8190416,142.0
3.8274682,4.9243765,1.9850372,35.0
4.1067076,4.757711,1.9395648,1.0
4.4981146,4.5828395,1.9147403,1.0
4.9230976,4.5141454,1.9225494,229.0
3.694692,5.25051,2.466954,1.0
5.7924194,5.3486032,1.4331813,65.0
3.767256,4.671251,2.2477167,76.0
4.0632334,4.524418,2.222506,83.0
4.6272507,4.5274467,2.2962172,47.0
5.079471,4.471096,2.3292282,94.0
4.3788714,4.450132,2.5740907,58.0
4.142435,5.891425,1.9537153,1.0
4.429551,5.515218,1.860872,1.0
4.788366,5.353646,1.8235499,104.0
3.8068311,4.961948,1.990584,48.0
4.086672,4.7950053,1.9443607,1.0
4.4586105,4.5999846,1.9100918,1.0
4.8847647,4.535877,1.918612,236.0
3.654156,5.2629304,2.4618688,1.0
5.7745347,5.399624,1.4372065,65.0
3.732035,4.687497,2.2441602,96.0
4.018493,4.531677,2.2134547,106.0
4.5107684,4.4687457,2.251484,73.0
5.011711,4.467864,2.3107543,90.0
4.3162217,4.441714,2.5532598,57.0
4.1274047,5.9489536,1.9643612,1.0
3.676062,5.5727215,2.1798525,1.0
4.409161,5.5611467,1.8670843,1.0
4.770064,5.400998,1.8295609,81.0
3.7790105,4.99033,1.9924331,78.0
4.077428,4.8453393,1.9545523,1.0
4.4269824,4.6251345,1.9089296,1.0
4.8729954,4.5822053,1.9253618,114.0
3.5850446,5.2336326,2.437169,1.0
5.5821953,5.8721066,1.5482252,1.0
5.767687,5.4614167,1.4441592,45.0
3.71746,4.73001,2.2534072,90.0
3.9862213,4.5526166,2.211366,106.0
4.4693604,4.48363,2.2447062,74.0
4.942788,4.462697,2.2916205,102.0
4.265311,4.4447055,2.5393724,50.0
4.841497,4.5390797,2.6703212,1.0
4.114001,6.0097003,1.9760717,1.0
3.5931304,5.522665,2.150879,1.0
4.3788776,5.5948396,1.8691549,1.0
4.742418,5.4381413,1.8320655,83.0
3.7634587,5.0353637,2.0010614,46.0
4.027319,4.8474436,1.9449602,1.0
4.35329,4.6054296,1.889173,1.0
3.6507058,5.3828135,2.4996448,93.0
5.7746572,5.5197,1.4525756,62.0
3.7111328,4.768181,2.2633655,102.0
3.9585576,4.5642896,2.2078846,106.0
4.4270973,4.483152,2.2338617,50.0
4.914707,4.479602,2.2883215,33.0
4.2316494,4.4513407,2.5316572,29.0
4.6919055,4.4413037,2.5985718,1.0
4.104097,6.0561,1.9851207,1.0
3.6610334,5.68448,2.2081962,101.0
4.3630757,5.6291847,1.8738141,1.0
4.7243576,5.469199,1.8350711,87.0
3.7565923,5.0760384,2.0103064,84.0
4.0080824,4.8707767,1.9467587,1.0
4.280701,4.5712495,1.8665111,1.0
4.739055,4.5559573,1.8916134,77.0
5.6239386,6.0483937,1.578895,1.0
5.766772,5.5817885,1.4595282,42.0
3.69584,4.810724,2.2726123,128.0
3.9187827,4.5762916,2.2016184,109.0
4.364799,4.4757433,2.2162395,30.0
4.879508,4.5040116,2.2850225,29.0
4.2061143,4.48054,2.5332003,58.0
4.6317253,4.4400406,2.5804455,1.0
4.0907106,6.11856,1.9973633,1.0
3.6589901,5.7601457,2.2289817,86.0
4.348671,5.684165,1.8831323,1.0
4.692422,5.501714,1.8360729,91.0
3.7313282,5.108782,2.0140042,77.0
3.974984,4.8929095,1.9455597,9.0
4.2855573,4.634697,1.8816191,1.0
4.707577,4.5829744,1.8904885,100.0
5.755517,5.641249,1.465749,65.0
3.6891537,4.8652077,2.2875497,102.0
3.889952,4.6008234,2.2016184,87.0
4.307973,4.473169,2.2013283,1.0
4.7943997,4.481894,2.2579713,5.0
4.2166276,4.548957,2.5571175,64.0
4.5850763,4.451055,2.569872,19.0
3.654114,5.832797,2.2485073,75.0
4.320989,5.722191,1.8867562,1.0
4.6777835,5.5547295,1.8440876,91.0
3.7157688,5.1553316,2.0232491,73.0
3.942964,4.9163036,1.9449602,8.0
4.252495,4.65728,1.8798759,1.0
4.6444154,4.5788827,1.8764267,63.0
5.743742,5.7007875,1.4719697,47.0
3.6696625,4.9032936,2.294663,114.0
3.8585548,4.6223035,2.2002258,106.0
4.126004,4.3373876,2.1206727,1.0
4.704264,4.453712,2.228281,1.0
4.019134,4.389696,2.4521909,159.0
4.510652,4.434484,2.543438,13.0
3.6825502,5.960419,2.2894483,58.0
4.3010516,5.7709584,1.8940037,1.0
4.6415477,5.5825257,1.8435867,88.0
3.701967,5.2049947,2.0337267,68.0
3.926267,4.958886,1.9521543,8.0
4.2308097,4.6924596,1.8833623,1.0
4.612829,4.6052704,1.8753017,90.0
5.7411776,5.7701325,1.4807521,67.0
3.660894,4.956398,2.308889,92.0
3.825844,4.6421275,2.198137,105.0
4.1782556,4.4485273,2.162695,162.0
4.6570506,4.464949,2.219044,1.0
4.0777683,4.510969,2.5061972,157.0
4.5248322,4.5044127,2.5676062,40.0
4.2806706,5.8197002,1.9012512,1.0
4.623638,5.632483,1.8505996,86.0
3.6876867,5.2546864,2.044204,74.0
3.9115496,5.0044513,1.9605472,8.0
4.21519,4.7347174,1.8897542,1.0
4.5810943,4.631442,1.8741767,56.0
5.7421117,5.8438663,1.4906322,42.0
3.6329682,4.9838448,2.3110228,130.0
3.7966013,4.6660743,2.198137,103.0
4.169347,4.4954505,2.1728616,134.0
4.6139584,4.479702,2.2117865,1.0
4.0395517,4.525456,2.500025,149.0
4.42317,4.4593606,2.5253117,23.0
4.263238,5.8731127,1.9100518,1.0
4.599167,5.674931,1.8551079,82.0
3.6783187,5.312242,2.057763,83.0
3.8788583,5.0274224,1.9599477,8.0
4.184099,4.7596674,1.889173,1.0
4.547868,4.656028,1.8724893,69.0
5.747835,5.923469,1.501976,32.0
3.6287463,5.0445976,2.3288054,92.0
3.7731042,4.6971254,2.2016184,98.0
4.1334214,4.513207,2.1687949,121.0
4.5465565,4.4703407,2.1926527,10.0
3.9964528,4.5340877,2.4907668,139.0
4.35736,4.448819,2.5034094,75.0
4.2520256,5.935977,1.9219586,1.0
4.585269,5.73087,1.8641244,87.0
3.6822603,5.390353,2.0793345,79.0
3.8715723,5.0834937,1.9725372,8.0
4.164109,4.7974567,1.8938217,1.0
4.5305543,4.6969056,1.8775517,63.0
5.7622066,5.9943285,1.5133198,1.0
3.6200454,5.083007,2.3387637,113.0
3.757961,4.7236333,2.2057958,103.0
4.0932126,4.511668,2.1586282,118.0
4.5079646,4.474481,2.1840754,13.0
3.9617443,4.5375357,2.48228,129.0
4.251835,5.99542,1.9349005,1.0
4.565452,5.761499,1.8671299,85.0
3.8544962,5.1108,1.9761342,8.0
4.135241,4.8097506,1.8909163,1.0
4.484426,4.6933002,1.8674271,65.0
3.7398374,4.761858,2.2127585,106.0
4.0622826,4.534486,2.1572726,115.0
4.451708,4.4746995,2.17022,1.0
3.9391565,4.5693464,2.4861376,109.0
4.2580433,4.4444737,2.4739542,12.0
4.240558,6.060077,1.9473249,1.0
4.5519085,5.8189845,1.8766475,81.0
3.7152538,5.5700893,2.1335707,1.0
3.8314617,5.147133,1.9809302,9.0
4.116043,4.848804,1.8961459,1.0
4.4693856,4.736694,1.8736143,71.0
3.7236888,4.8029966,2.2211134,109.0
4.0237756,4.548612,2.1518505,88.0
4.3770423,4.4555926,2.1471274,1.0
3.8948827,4.5756874,2.4761078,92.0
4.2338653,4.475163,2.47622,1.0
4.527133,5.8627625,1.8816566,99.0
3.6874695,5.6044717,2.1378849,1.0
3.8092568,5.1849113,1.9863257,17.0
4.0903945,4.8804526,1.8984703,1.0
4.440849,4.7660823,1.8741767,85.0
3.634941,5.3142304,2.4141622,3.0
3.7106035,4.8485746,2.2315574,84.0
3.9753869,4.5510635,2.141006,45.0
4.255309,4.387095,2.1002827,1.0
3.8625088,4.5958195,2.4737933,105.0
4.217082,4.5138183,2.4830172,1.0
4.5008087,5.904922,1.886165,81.0
3.6831117,5.675504,2.1563747,1.0
3.7912276,5.2287784,1.9941192,10.0
4.06208,4.9090133,1.8996325,1.0
4.414727,4.7981157,1.8758641,86.0
3.653514,5.4146013,2.4497275,1.0
3.6857414,4.879255,2.2350388,104.0
4.2800813,4.46811,2.1266742,146.0
3.832383,4.6185737,2.4730217,108.0
4.0071673,4.3448176,2.3742602,1.0
4.4951625,5.974775,1.8996898,89.0
3.6769843,5.745096,2.174248,1.0
3.7716815,5.271075,2.0013132,18.0
4.0444217,4.950784,1.9060242,1.0
4.3974433,4.8399243,1.8814889,68.0
3.6637504,5.5044975,2.4803135,1.0
3.6809018,4.936802,2.2510526,100.0
3.9105933,4.592039,2.1369393,16.0
4.258433,4.501751,2.129973,110.0
3.810275,4.6511497,2.477651,118.0
4.087432,4.48729,2.4392123,168.0
4.4668016,6.0153117,1.9036973,78.0
3.7044933,5.869641,2.213076,1.0
3.74291,5.3008895,2.0037112,10.0
4.7810726,5.6899757,1.814994,1.0
4.0096455,4.9716177,1.904281,1.0
4.3579435,4.8574862,1.8775517,74.0
3.6254878,5.5029325,2.471778,1.0
3.6710198,4.972149,2.2594078,94.0
3.8562849,4.5714717,2.1186392,1.0
4.225512,4.509407,2.124035,111.0
3.80105,4.6848583,2.4861376,99.0
4.0824285,4.5243216,2.4490306,104.0
4.4740944,6.0845556,1.9192257,83.0
3.6888301,5.906433,2.220472,62.0
3.7442427,5.355918,2.018099,40.0
4.792567,5.7587924,1.8299669,55.0
3.996879,5.003949,1.9095107,1.0
4.335005,4.877969,1.8775517,70.0
3.638485,5.5994163,2.5052092,71.0
3.654125,5.0147676,2.268459,97.0
4.176506,4.5137625,2.1134784,113.0
3.7669444,4.7028723,2.4830515,140.0
4.0328994,4.5264473,2.4361913,101.0
4.444907,6.125059,1.9232332,72.0
3.696331,6.0025287,2.2482066,66.0
3.7224877,5.396578,2.0246935,20.0
4.7771654,5.8143406,1.8381778,28.0
3.9653597,5.028963,1.9095107,1.0
4.3182445,4.920935,1.8837388,78.0
3.6489346,5.0740743,2.2851694,95.0
4.158288,4.551032,2.1187565,77.0
3.7669506,4.76418,2.5031111,94.0
3.9945562,4.5406065,2.4301493,135.0
3.7122314,5.454489,2.0378826,11.0
4.7600355,5.8684106,1.8459057,51.0
3.9383664,5.0598345,1.911835,1.0
4.291024,4.95231,1.8854262,73.0
3.6289716,5.1136813,2.292828,88.0
4.0851827,4.5281525,2.0956643,154.0
3.9561949,4.5544634,2.4241073,101.0
3.7099414,5.5251303,2.0558674,28.0
4.744832,5.9255304,1.8545996,32.0
3.9181082,5.0996923,1.9176457,1.0
4.262328,4.9820824,1.8865511,71.0
3.6205392,5.170092,2.3081458,77.0
4.0768204,4.57622,2.1062207,61.0
3.9105551,4.559608,2.4135337,130.0
3.6984406,5.5832562,2.0690565,1.0
4.732696,5.987267,1.8647425,58.0
3.8952012,5.1364374,1.9222944,1.0
4.2483435,5.0292377,1.8944257,73.0
3.6190355,5.237371,2.3283372,61.0
3.7514746,4.742132,2.1423614,1.0
4.0580006,4.613053,2.111499,34.0
3.8842323,4.586907,2.415044,92.0
3.6863549,5.641454,2.0822453,10.0
4.7092624,6.0352845,1.8705384,62.0
3.868561,5.168489,1.9251997,1.0
4.2141924,5.0528913,1.8933008,73.0
3.6283472,5.3037777,2.3506174,96.0
3.6562915,4.666197,2.0996616,1.0
4.0287466,4.623608,2.1075404,25.0
3.8577945,4.5995007,2.412023,125.0
3.7107387,5.7371154,2.111621,18.0
4.711518,6.0974197,1.8830962,43.0
3.858913,5.206695,1.9327537,1.0
4.1915617,5.0741696,1.8938633,74.0
3.6065426,5.3435283,2.3582764,100.0
3.7128599,4.801002,2.1504948,140.0
3.9402838,4.580327,2.0758705,1.0
3.830005,4.625071,2.4127784,96.0
3.8429968,5.254061,1.9414698,1.0
4.1790786,5.1241436,1.9028629,76.0
3.7269533,4.882716,2.1769283,68.0
3.911427,4.6049943,2.0758705,1.0
3.8422503,5.323204,1.958321,1.0
4.1431756,5.1458263,1.9011754,49.0
3.6363268,5.5354285,2.4237244,17.0
3.6984553,4.90905,2.1782837,43.0
4.0139675,4.7852764,2.1471274,77.0
5.08936,6.139803,1.8633901,1.0
3.8319418,5.380046,1.9705236,1.0
4.1071653,5.1672606,1.899488,78.0
3.704936,5.7167687,2.4940464,1.0
3.7111318,4.991224,2.2047172,55.0
3.9354625,4.7523947,2.120736,160.0
3.7525797,4.709439,2.4195757,1.0
5.056863,6.179172,1.8657053,1.0
3.8177834,5.43226,1.9809829,1.0
4.0603447,5.174889,1.8927383,37.0
3.565467,5.5791087,2.4230282,1.0
3.6431255,4.964261,2.1823504,76.0
3.7286649,4.7401824,2.423352,1.0
4.0879264,5.277499,1.9214244,67.0
3.6428142,5.013417,2.1965837,64.0
3.6548507,4.6921315,2.3893654,47.0
3.763214,5.481815,1.9838883,1.0
4.0477653,5.2769537,1.9141123,73.0
3.6156082,5.042337,2.1992948,128.0
3.8113325,4.7682014,2.0976436,3.0
3.7171373,4.8336067,2.4505413,161.0
3.7340384,5.5132904,1.9867936,1.0
4.0319777,5.3251815,1.9225494,61.0
3.6054914,5.0957465,2.2128506,135.0
3.901095,4.942838,2.1649415,1.0
3.7159333,4.8951216,2.470178,83.0
3.7215486,5.570127,1.9989963,1.0
3.9903638,5.3396726,1.918612,77.0
3.6195042,5.1847925,2.2419949,81.0
3.8315108,4.9182262,2.1431687,43.0
3.6962566,4.9331565,2.4777305,119.0
3.715829,5.6382303,2.0152664,1.0
3.980758,5.3970027,1.930424,44.0
3.603854,5.2322807,2.2528393,79.0
3.6939447,4.9949026,2.4973671,75.0
3.7093995,5.70648,2.0315363,1.0
3.9694538,5.452873,1.9416734,63.0
3.5972228,5.293813,2.269784,121.0
4.3838806,5.7700615,2.4968138,30.0
3.7320719,5.821679,2.0646577,1.0
3.948608,5.496371,1.948423,81.0
3.5973222,5.348257,2.2860506,101.0
3.6115217,4.80604,2.065314,18.0
3.8586855,6.083664,2.1524,1.0
3.927132,5.5211596,1.950673,66.0
3.6040277,5.4320297,2.312484,82.0
3.7021468,4.9904914,2.135911,164.0
3.9122956,5.5739427,1.9607974,66.0
3.5975149,5.497164,2.3307838,79.0
3.7088084,5.065325,2.1583438,78.0
3.8936582,5.6220326,1.9692346,78.0
3.5943868,5.5687647,2.351795,127.0
3.6746876,5.085474,2.1570241,78.0
3.8821828,5.6811776,1.9816089,69.0
3.654775,5.125333,2.1642818,119.0
3.8636515,5.7308693,1.9906085,66.0
3.6316485,5.7859354,2.4249952,101.0
3.6454206,5.180547,2.1781373,112.0
3.8446486,5.7805514,1.999608,69.0
3.650241,5.2394023,2.1959515,60.0
3.8481069,5.845004,2.0159197,51.0
3.626919,5.276206,2.2018895,155.0
3.843855,5.918872,2.0333564,40.0
3.63309,5.3565807,2.2263017,64.0
3.8513036,6.0122733,2.0575426,38.0
3.6141303,5.401224,2.2355387,141.0
3.6060097,5.5377946,2.2738063,155.0
3.648032,5.6792526,2.32329,48.0
3.633441,5.7154636,2.3312075,103.0
