x,y,z,intensity
-7.4095783,6.996437,1.7418157,1.0
-7.554453,7.0435996,1.76585,120.0
-7.62615,7.021297,1.7723736,69.0
-7.9227767,7.202044,1.8317726,50.0
-7.7599354,7.4181128,0.8015027,1.0
-7.6220636,7.195864,0.77934957,188.0
-7.703996,7.2046824,0.7851059,201.0
-7.715387,7.1251106,0.7810939,185.0
-7.719996,7.265156,1.1549519,1.0
-7.7305074,7.0497003,0.77760524,200.0
-7.675167,7.1328897,1.1399295,188.0
-7.7868013,7.210526,0.42744398,40.0
-7.7598176,6.9876857,0.77586085,203.0
-7.4388633,6.9800906,1.6902138,46.0
-7.7154365,7.0805063,1.1392026,183.0
-7.79947,7.1318707,0.42510277,142.0
-7.8140097,6.9480386,0.7770819,197.0
-7.687866,7.337758,0.7378692,1.0
-7.608188,7.050072,1.719213,156.0
-7.7686143,7.039871,1.1406564,171.0
-7.853036,7.0907383,0.42574129,47.0
-7.8695087,6.909298,0.7784774,136.0
-7.765672,7.319447,0.74148446,1.0
-7.6741185,7.022141,1.7242129,89.0
-7.810582,7.011124,1.1421101,180.0
-7.69973,7.1887197,0.73014563,140.0
-7.739212,7.015099,1.731546,67.0
-7.869362,6.97505,1.1445332,44.0
-7.734099,7.3238983,1.1011127,1.0
-7.7242656,7.1212444,0.727845,54.0
-7.635121,7.1391964,1.0779879,148.0
-7.720303,7.028197,0.72242206,136.0
-7.926297,6.8497095,1.1396872,140.0
-7.7410183,7.147804,1.0877004,74.0
-7.7598705,6.975544,0.7219291,90.0
-8.072043,6.8871984,1.1561633,100.0
-7.735953,7.05342,1.0798379,113.0
-7.7946167,6.9186935,0.7209431,93.0
-7.785294,7.031565,1.0823816,97.0
-7.7944517,7.3918705,0.6872256,1.0
-7.842641,6.9944367,1.0844629,82.0
-7.7817235,7.3247805,1.4213467,1.0
-7.662854,7.176792,0.6685305,186.0
-7.8348527,7.282465,1.4227916,1.0
-7.7429943,7.1609306,0.6722082,212.0
-7.9284177,6.8940268,1.0842316,130.0
-7.690833,7.2667427,1.0512823,48.0
-7.7460876,7.1102343,1.396203,161.0
-7.7657084,7.0920105,0.66990966,204.0
-7.668357,7.0872655,1.6559839,153.0
-7.734884,7.216923,1.0510588,181.0
-7.793547,7.064077,1.3967811,116.0
-7.79083,7.025754,0.66791755,193.0
-7.698127,7.0256634,1.6527886,203.0
-7.762505,7.152055,1.0483764,146.0
-7.839255,7.0162864,1.39707,95.0
-7.8303447,6.9726944,0.6674578,154.0
-7.746526,6.981113,1.6537472,194.0
-7.7608285,7.0833087,1.0430119,121.0
-7.9004154,7.0041566,1.4025612,75.0
-7.8722873,7.027181,1.6738775,170.0
-7.818491,7.0463557,1.0450236,118.0
-7.7555146,7.2960067,1.3618536,49.0
-7.898304,7.0287333,1.0503882,110.0
-7.6844435,7.343654,0.983994,1.0
-7.764994,7.213367,1.354874,174.0
-7.7218804,7.1371913,0.60451514,1.0
-7.8914638,6.9344616,1.0427884,97.0
-7.7102184,7.276077,0.9810532,166.0
-7.730038,7.0906515,1.3395189,139.0
-7.7827525,7.103358,0.60606515,169.0
-7.957433,6.9042354,1.0461413,100.0
-7.7180185,7.192161,0.97559154,103.0
-7.7905545,7.0565987,1.34259,143.0
-7.9189525,7.137304,0.6148018,44.0
-7.7148433,7.098989,0.96865946,145.0
-7.84358,7.0154486,1.344265,130.0
-7.7247334,7.041072,0.9652985,94.0
-7.7559724,7.1671023,1.5788339,47.0
-7.7717724,6.9950643,0.96571857,114.0
-7.646297,7.2222743,1.2841678,98.0
-7.7600307,7.0808363,1.5703797,171.0
-7.7933087,6.926233,0.9625676,87.0
-7.6550126,7.3453774,0.9295747,49.0
-7.7437954,7.222654,1.2938226,122.0
-7.8140516,7.254958,0.557956,1.0
-7.8073,7.0345917,1.5709836,127.0
-7.827719,6.8692408,0.9613073,157.0
-7.6879897,7.2848415,0.9277716,203.0
-7.726226,7.116241,1.2822903,166.0
-7.7872734,7.1397696,0.55157185,155.0
-7.8631415,6.995935,1.5733991,78.0
-7.695763,7.2011156,0.92256266,167.0
-7.7751923,7.0715475,1.283095,137.0
-7.8719954,7.1267886,0.55508965,88.0
-7.399755,7.049236,1.9618849,153.0
-7.6998606,7.1148853,0.91695297,175.0
-7.826856,7.0291624,1.2844359,120.0
-7.464358,7.0438633,1.970319,92.0
-7.7127166,7.0597515,0.91414815,196.0
-7.89846,7.026377,1.2914089,94.0
-7.745091,7.0005,0.9125454,182.0
-7.717243,7.277151,1.2212358,1.0
-7.8590593,7.230682,2.0515943,164.0
-7.7993336,6.9609537,0.91394776,154.0
-7.685812,7.3672357,0.8513995,1.0
-7.6686163,7.140466,1.2047007,168.0
-7.690214,7.1273766,0.48658678,149.0
-7.8279614,6.898684,0.9119443,158.0
-7.6511064,7.241982,0.8410312,156.0
-7.7220755,7.1002154,1.206227,88.0
-7.7863,7.126193,0.4907498,146.0
-7.693553,7.191041,0.84066087,76.0
-7.7548056,7.040866,1.2041919,130.0
-7.839793,7.085179,0.49146345,50.0
-7.670468,7.101831,0.83344007,117.0
-7.8070397,7.0215263,1.2074989,87.0
-7.694399,7.034644,0.83084804,104.0
-7.883579,7.001378,1.2130954,35.0
-7.270218,7.016775,1.8463155,1.0
-7.739922,6.9874973,0.8310332,99.0
-7.4079213,7.0606775,1.870467,151.0
-7.761414,6.918808,0.82825595,99.0
-7.496441,7.055857,1.8818107,44.0
-7.8494997,6.909466,0.8338104,57.0
-8.000595,6.8399134,1.210806,49.0
-7.8971434,7.341296,1.9725612,44.0
-7.905661,7.2799764,1.9659745,144.0
-7.952698,7.231486,1.9663404,66.0
