x,y,z,intensity
9.759536,8.756672,1.0096029,41.0
9.850803,8.703514,0.5623826,89.0
9.739445,8.714543,0.5583387,148.0
9.638684,8.733921,0.5550397,100.0
9.393349,8.752674,0.9857054,87.0
9.517958,8.706329,0.54929316,130.0
9.275197,8.72437,0.97646034,140.0
9.40601,8.712938,0.5451428,101.0
9.189948,8.75357,0.9727972,102.0
9.279813,8.704801,0.5399283,131.0
9.176289,8.851317,0.97785586,124.0
9.190236,8.729868,0.53737426,118.0
9.87943,8.719987,0.4901567,137.0
9.171723,8.959,0.98413545,104.0
9.120002,8.947787,0.09656029,80.0
9.184066,8.834592,0.5409925,114.0
9.763295,8.727397,0.48625222,92.0
9.084138,8.985576,0.9802979,98.0
8.988537,8.930096,0.09461567,120.0
9.171227,8.933998,0.54418504,170.0
9.637078,8.724325,0.4816811,99.0
8.954419,8.969039,0.97122735,163.0
9.379663,8.742402,0.9187974,100.0
9.096076,8.922224,-0.32694355,78.0
8.939287,8.993499,0.09479912,102.0
9.038225,8.8559475,1.405487,41.0
9.077841,8.926624,0.54035395,176.0
9.532358,8.71179,0.47758618,99.0
8.952618,9.052282,0.97628593,94.0
9.27294,8.725144,0.9114025,85.0
8.992923,8.904388,-0.32566744,124.0
8.954236,9.094036,0.096303456,103.0
9.027428,8.957379,1.4132404,59.0
8.965056,8.927027,0.5360972,172.0
9.408422,8.707843,0.4731103,99.0
8.941428,9.155465,0.98204225,128.0
9.187585,8.754409,0.90795153,107.0
8.957946,8.981989,-0.3261126,77.0
8.245669,8.989594,2.0916862,1.0
8.942846,9.197501,0.09751426,100.0
8.903856,8.946273,1.4016103,59.0
8.941083,9.015847,0.5385449,182.0
9.287835,8.705413,0.46882486,103.0
8.886488,9.214337,0.9823911,95.0
9.179806,8.85756,0.9133745,100.0
9.774066,8.7569065,0.8701921,60.0
8.950367,9.088042,-0.32715127,124.0
8.144135,8.991499,2.0800123,1.0
8.927744,9.298292,0.09865168,42.0
9.181775,8.909654,0.024974894,43.0
8.794676,8.948152,1.3924029,107.0
8.927506,9.11615,0.54184383,176.0
9.18942,8.722408,0.46596792,100.0
8.757087,9.194853,0.97332054,123.0
9.085419,8.877513,0.9089375,146.0
8.954335,9.207275,-0.32845706,76.0
8.036349,8.985131,2.0666218,1.0
8.95163,9.008023,2.1125357,8.0
8.819696,9.301885,0.0973308,32.0
9.01275,8.856616,0.022964163,143.0
8.685826,8.949013,1.3831956,48.0
9.0597925,8.728688,1.3256544,33.0
8.924109,9.228139,0.54599416,176.0
9.197905,8.840786,0.4701581,94.0
8.659624,9.207541,0.96826196,94.0
8.96702,8.872837,0.901707,72.0
9.753976,8.703497,0.42442906,136.0
8.901839,9.269134,-0.32857576,39.0
7.936777,8.98664,2.0552914,1.0
8.831214,8.999446,2.0972028,7.0
8.707866,9.300104,0.09589985,41.0
8.958344,8.914478,0.022989614,62.0
8.577314,8.948862,1.3739884,63.0
9.051768,8.831145,1.3332856,24.0
8.897623,9.317299,0.54844177,91.0
9.16655,8.922052,0.47177705,148.0
8.5420475,9.197437,0.96058685,125.0
8.818014,8.836037,0.89086115,120.0
9.6458025,8.716299,0.42133436,68.0
9.3157215,8.667442,0.8395444,166.0
8.803584,9.28274,-0.32771513,40.0
7.828458,8.976843,2.0415576,1.0
9.104972,8.919465,-0.40245783,65.0
8.600473,9.301699,0.094578974,27.0
8.930376,8.998934,0.02349866,90.0
8.495476,8.947366,1.3669617,107.0
9.063922,8.926587,1.342073,38.0
9.093005,8.934397,0.46968195,94.0
8.470333,9.206752,0.9569237,98.0
8.889972,8.992125,0.90417194,110.0
9.539761,8.702303,0.41755193,93.0
9.303801,8.738596,0.8426092,132.0
8.709166,9.270115,-0.3266171,82.0
7.7590747,8.982276,2.0343473,1.0
8.993062,8.893489,-0.40042394,126.0
8.510704,9.291913,0.093331486,58.0
8.937019,9.090753,0.02438949,90.0
8.374026,8.930944,1.3553315,51.0
8.980887,8.95675,1.3376793,21.0
8.702087,9.31518,0.54120535,51.0
8.964351,8.919606,0.46482515,121.0
8.34144,9.181517,0.9476787,130.0
8.8821125,9.097644,0.9099235,96.0
9.413081,8.69552,0.4133397,91.0
9.193889,8.744569,0.83678615,136.0
8.607301,9.27767,-0.32566744,46.0
7.6629276,8.98431,2.0237033,1.0
8.963894,8.976659,-0.4012126,87.0
8.40663,9.294706,0.09208399,44.0
8.936932,9.205464,0.025433036,90.0
8.27197,8.933779,1.3470933,65.0
8.868432,8.956625,1.3284293,22.0
8.596073,9.318218,0.5374807,67.0
8.944778,9.012563,0.46730116,94.0
8.245074,9.190674,0.9426201,113.0
8.797061,9.124617,0.9066369,115.0
9.292694,8.692961,0.40947133,94.0
9.145933,8.809091,0.83755237,166.0
9.762897,8.738695,0.78728026,74.0
8.500292,9.278406,-0.3245991,53.0
7.5657964,8.983983,2.0127163,1.0
8.956534,9.082556,-0.40266538,112.0
8.415589,8.990822,2.0475376,18.0
8.293551,9.286105,0.09057966,46.0
9.904397,8.668206,-0.5488062,58.0
8.172885,8.93862,1.3393399,63.0
8.754944,8.954024,1.3189481,23.0
8.471571,9.299594,0.5322662,65.0
8.925791,9.107047,0.46987242,124.0
8.138374,9.187036,0.93616605,132.0
8.681734,9.119171,0.89973503,96.0
9.188645,8.704375,0.40654856,109.0
9.884544,8.707166,0.3442486,125.0
9.033392,8.810596,0.8314228,164.0
9.629347,8.7289715,0.7798118,115.0
8.389599,9.27371,-0.32344168,86.0
7.4664598,8.979758,2.0010426,1.0
8.960772,9.201586,-0.40449172,88.0
8.305295,8.9856825,2.0342045,1.0
8.190156,9.286965,0.08933217,44.0
8.824681,9.32139,0.025509391,28.0
9.780829,8.669378,-0.54593545,86.0
9.117765,8.930657,-0.02329799,103.0
8.072739,8.941094,1.3313441,112.0
8.643223,8.951781,1.3096982,23.0
8.371642,9.306542,0.5289672,64.0
8.929626,9.226014,0.4740626,92.0
8.026812,9.1764145,0.9290142,150.0
8.573664,9.119888,0.89365476,129.0
9.184164,8.810432,0.40955728,88.0
9.775876,8.721285,0.34161478,49.0
8.912696,8.802617,0.82437384,179.0
9.505138,8.726,0.7731889,96.0
8.285951,9.275459,-0.32243267,44.0
7.374961,8.983791,1.9914289,1.0
8.92777,9.283609,-0.40523884,36.0
8.220704,9.007147,2.0272048,1.0
8.092321,9.292936,0.088231444,48.0
8.7002735,9.306635,0.024287682,1.0
8.994842,8.92147,-0.024141654,42.0
7.957063,8.924856,1.3204408,47.0
8.533252,8.949924,1.3006796,24.0
9.100295,8.797922,1.2848661,66.0
8.271962,9.312603,0.5256682,108.0
8.914342,9.326639,0.47701478,59.0
7.928703,9.179857,0.92360675,152.0
8.472721,9.126903,0.8883962,78.0
9.1715555,8.9098015,0.4121362,146.0
8.809351,8.81042,0.81916374,191.0
9.391593,8.731306,0.7675523,118.0
8.179973,9.273271,-0.3213643,54.0
7.272567,8.973235,1.978725,1.0
8.815474,9.283057,-0.40362003,36.0
8.095171,8.982561,2.009872,1.0
7.989532,9.291972,0.08698395,71.0
8.6117325,9.328836,0.023727732,1.0
8.940019,8.979229,-0.024123704,55.0
7.8913083,8.935429,1.3160794,69.0
8.455454,8.952545,1.2946671,36.0
9.088557,8.869907,1.2895602,66.0
8.937188,8.977715,1.7106421,33.0
8.16873,9.283911,0.5208794,48.0
7.842698,9.167087,0.91785043,147.0
8.371499,9.103734,0.88132995,120.0
9.099554,8.923494,0.41033095,78.0
8.806963,8.891568,0.82345444,171.0
9.286241,8.715496,0.7613521,90.0
8.07971,9.246868,-0.3200882,49.0
7.194512,8.962785,1.968768,1.0
8.722224,9.272143,-0.40212578,74.0
8.000122,8.961852,1.9965389,1.0
7.886131,9.259391,0.08529616,43.0
8.494672,9.289737,0.022353306,1.0
9.012383,8.883546,-0.45114386,35.0
8.999154,8.9788,2.023442,41.0
8.957895,9.0825815,-0.02335184,111.0
7.7712007,8.911408,1.3042068,74.0
8.340671,8.943122,1.2847235,24.0
9.058052,8.952024,1.2935836,83.0
8.815504,8.967257,1.6970588,24.0
8.077552,9.297308,0.51821893,63.0
8.719687,9.326466,0.47063428,56.0
7.7451687,9.168932,0.912443,128.0
8.260439,9.097216,0.87475675,88.0
8.9668665,8.90434,0.4056889,126.0
8.807997,9.005269,0.8297372,197.0
9.182055,8.727019,0.75656104,168.0
7.9875517,9.258027,-0.31931663,60.0
7.1002054,8.959873,1.9581242,1.0
8.610628,9.269712,-0.40050697,45.0
7.909686,8.973536,1.9878725,1.0
7.8033934,9.279638,0.08459903,30.0
8.3797455,9.280677,0.02128431,1.0
8.949325,8.932923,-0.4508964,76.0
8.896804,8.988787,2.0128977,46.0
8.950802,9.190343,-0.02270563,35.0
7.6775646,8.916368,1.2971802,73.0
8.241172,8.948661,1.2773236,39.0
8.927291,8.934129,1.2817367,156.0
8.720454,8.982647,1.6889666,39.0
7.9696584,9.290193,0.51417506,62.0
8.610688,9.326839,0.4671107,37.0
7.644107,9.1653185,0.9065122,131.0
8.136462,9.074845,0.8665402,110.0
8.9501295,9.000238,0.4080959,81.0
8.730495,9.038885,0.8274386,199.0
9.083852,8.743105,0.75233364,107.0
9.785642,8.732566,0.718081,75.0
7.887808,9.259249,-0.31836697,51.0
7.001376,8.949917,1.946107,1.0
8.502117,9.26919,-0.3989712,33.0
7.7999635,8.962157,1.9742062,10.0
7.68502,9.256074,0.08287456,46.0
8.271936,9.277995,0.020342575,1.0
8.937945,9.034533,-0.4524802,43.0
8.785041,8.987944,2.0001166,60.0
8.933019,9.288266,-0.02218507,26.0
7.5777583,8.91293,1.2889421,72.0
8.144613,8.95624,1.2703861,24.0
8.599584,8.970015,1.6753833,25.0
7.877634,9.3004055,0.51140815,108.0
8.50338,9.327687,0.46368238,25.0
7.544662,9.16234,0.9007559,145.0
8.017067,9.05575,0.8588166,85.0
8.931142,9.09485,0.41041693,128.0
8.622692,9.040089,0.8217688,194.0
8.971501,8.7444,0.74669707,106.0
9.665523,8.734899,0.7123483,143.0
7.787081,9.258052,-0.31738764,85.0
6.919774,8.960937,1.9388968,1.0
8.404713,9.279511,-0.39776745,41.0
7.7164545,8.979627,1.9672064,20.0
7.597615,9.2685585,0.08203067,75.0
8.171113,9.281822,0.019528102,1.0
8.929826,9.140646,-0.45421246,33.0
8.8703575,9.339853,-0.022238921,1.0
9.093453,8.916832,-0.108619265,147.0
7.4859424,8.917727,1.2821578,73.0
8.053605,8.968864,1.2643737,35.0
8.790779,9.021368,1.2779368,51.0
9.182982,8.766627,1.202249,123.0
8.502308,8.980689,1.6667131,39.0
7.7742896,9.296021,0.5076835,46.0
8.401758,9.3334875,0.46063498,37.0
7.4505744,9.164667,0.89569724,163.0
7.898235,9.035515,0.8510931,104.0
8.937703,9.216872,0.41437128,78.0
8.515222,9.040297,0.816099,194.0
8.8538065,8.739035,0.7404969,112.0
9.804563,8.711775,0.2787566,43.0
9.545762,8.73607,0.70661557,92.0
7.686682,9.255957,-0.3164083,55.0
6.838311,8.971286,1.9316865,1.0
8.295497,9.275581,-0.39619017,46.0
7.6100235,8.969374,1.9542067,20.0
7.5003147,9.267859,0.08089325,37.0
8.062684,9.275706,0.018560914,1.0
8.935968,9.262865,-0.45648915,27.0
8.756867,9.3369665,-0.022956934,1.0
8.983233,8.920328,-0.108793676,74.0
7.385517,8.911011,1.2736775,75.0
7.9654016,8.983668,1.2588238,23.0
8.696777,9.037696,1.2719017,70.0
9.174981,8.869697,1.2091812,94.0
8.3877,8.971675,1.6542859,25.0
7.678927,9.299962,0.50459737,71.0
8.287105,9.323471,0.45663524,23.0
7.350535,9.158397,0.8897665,179.0
7.7969403,9.033733,0.84550583,112.0
8.922386,9.317654,0.41703615,88.0
9.171888,8.909644,0.33012846,140.0
8.413512,9.045362,0.81104213,188.0
8.752083,8.748026,0.73584676,110.0
9.43368,8.742877,0.70153433,116.0
7.5815573,9.246773,-0.31531027,117.0
6.746357,8.966777,1.9213861,1.0
8.180034,9.263165,-0.39440534,50.0
7.509104,8.964179,1.9425404,11.0
7.414534,9.280385,0.080086045,74.0
7.9585705,9.273144,0.017670084,1.0
8.867954,9.30868,-0.4561427,10.0
9.102408,8.896646,-0.53526396,86.0
8.653261,9.34331,-0.023549294,1.0
8.934072,8.983674,-0.10877072,110.0
7.310763,8.905762,1.2673777,73.0
7.89671,8.991296,1.2541988,34.0
8.618498,9.041118,1.26609,69.0
9.182981,8.961373,1.2165334,106.0
8.30506,8.967475,1.6456157,40.0
8.93044,8.9652,1.6446657,46.0
7.5832863,9.272571,0.50023425,90.0
8.188851,9.301033,0.45273075,36.0
7.2639985,9.138269,0.88366127,177.0
7.703669,9.011374,0.83909696,87.0
9.108362,8.931809,0.32903105,82.0
8.315492,9.024692,0.8047593,174.0
8.736082,8.814636,0.7383832,121.0
9.322525,8.721678,0.69528043,91.0
7.508965,9.246643,-0.3146277,35.0
6.668799,8.951004,1.9110857,1.0
8.098042,9.258026,-0.39320162,77.0
7.426399,8.95097,1.931874,42.0
7.324909,9.257122,0.07872848,42.0
6.106003,8.616161,2.363695,50.0
7.873254,9.261855,0.01685561,1.0
8.771932,9.295027,-0.45426196,1.0
8.996247,8.876363,-0.5324556,104.0
8.545703,9.314619,-0.024392959,1.0
8.950685,9.08542,-0.10857796,97.0
7.2197394,8.908273,1.2605934,74.0
7.8074584,9.003268,1.2484176,24.0
8.518004,9.04871,1.2589372,70.0
9.078318,8.971438,1.2093912,89.0
8.193893,8.959513,1.6337664,25.0
8.819682,8.96616,1.6337776,89.0
7.4973326,9.285802,0.497893,57.0
8.089543,9.30563,0.4497786,24.0
7.178212,9.147631,0.8796493,160.0
7.612114,9.018534,0.83466,107.0
8.718481,9.307122,0.4106748,31.0
8.976778,8.914342,0.3251535,133.0
8.209061,9.022105,0.79908955,158.0
8.736438,8.926292,0.74401975,109.0
9.202444,8.718209,0.6894175,128.0
7.4107766,9.243644,-0.31367806,50.0
6.586812,8.95776,1.903532,1.0
7.9951897,9.257346,-0.39179036,45.0
7.343714,8.965464,1.9248742,45.0
7.2371235,9.26509,0.0778479,30.0
6.031683,8.625548,2.3557227,46.0
7.7826996,9.2729,0.016219303,1.0
8.661647,9.294293,-0.4523812,1.0
8.271301,8.982809,1.9422817,54.0
8.964376,8.956694,-0.5335165,88.0
8.426693,9.301335,-0.025200725,1.0
8.966062,9.215906,-0.108339295,93.0
7.1326866,8.914651,1.2545359,76.0
7.726137,9.023518,1.2440238,37.0
8.415055,9.052483,1.2513374,72.0
8.956996,8.963687,1.1997284,110.0
8.088453,8.956394,1.6230732,41.0
8.699592,8.956156,1.6209352,47.0
7.4028177,9.287374,0.4948069,67.0
7.9852867,9.303293,0.44644547,35.0
7.074336,9.132616,0.87302077,133.0
7.5041513,9.005022,0.8280868,110.0
8.611069,9.308834,0.4075801,1.0
8.960115,9.010187,0.32720202,88.0
8.102992,9.018539,0.7934197,161.0
8.669069,8.96955,0.74289244,91.0
9.200688,8.8270645,0.6942381,94.0
9.800122,8.747826,0.6445439,149.0
7.3203535,9.249198,-0.31290644,62.0
6.4969244,8.952662,1.893575,1.0
7.8939676,9.25726,-0.39042062,55.0
7.238773,8.951711,1.9118745,45.0
7.1470914,9.269152,0.07689393,38.0
5.9320836,8.59737,2.3375642,23.0
7.675697,9.263184,0.015252115,1.0
8.55172,9.292544,-0.45050046,1.0
8.156364,8.970231,1.9282225,60.0
8.961409,9.066783,-0.535888,104.0
8.3215,9.301854,-0.025828985,1.0
8.917695,9.28214,-0.10830717,36.0
7.0482955,8.923408,1.2489631,72.0
7.6307344,9.026436,1.2370864,25.0
8.324471,9.068519,1.2457492,74.0
8.943876,9.063606,1.2062403,96.0
7.988636,8.958223,1.613536,41.0
8.589591,8.954988,1.6100471,88.0
7.3073483,9.286553,0.4916143,69.0
7.8930283,9.313713,0.44396946,24.0
6.9721413,9.118245,0.8665667,105.0
7.422042,9.021254,0.8248002,82.0
8.503981,9.3095665,0.4044854,1.0
8.948212,9.111868,0.32954317,109.0
8.001256,9.018481,0.7882096,171.0
8.55735,8.966205,0.7372559,128.0
9.133612,8.873555,0.6931958,66.0
9.648563,8.722355,0.6368125,125.0
7.23384,9.258718,-0.31222388,53.0
6.1910996,8.643635,1.8187253,1.0
7.7891927,9.251688,-0.38892633,45.0
7.154025,8.961619,1.9042081,47.0
7.0597115,9.275635,0.07601335,29.0
5.8659096,8.6167145,2.3326924,46.0
7.5894275,9.277222,0.014692165,1.0
8.422025,9.267554,-0.44787732,1.0
8.05903,8.975692,1.9183171,45.0
8.961605,9.181472,-0.53844666,86.0
9.019182,9.016276,1.9136772,31.0
8.210028,9.293915,-0.026546998,1.0
8.823349,9.300321,-0.1084265,33.0
6.95677,8.922051,1.2419366,69.0
7.544531,9.039175,1.2317678,41.0
9.171051,8.928698,-0.18040602,89.0
8.228691,9.077875,1.239267,76.0
8.932634,9.166556,1.2131723,92.0
7.8838954,8.953203,1.6028427,42.0
8.4895,8.962842,1.6011132,51.0
9.1427,8.703446,1.1323245,176.0
7.209738,9.281744,0.48820892,77.0
7.790679,9.311102,0.44073159,38.0
6.8740005,9.107731,0.86063594,104.0
7.314839,9.00591,0.81822693,127.0
8.383866,9.294463,0.40053108,1.0
8.943745,9.222348,0.3323233,112.0
7.9037776,9.022009,0.78345925,185.0
8.447389,8.96326,0.73176026,108.0
9.02086,8.874691,0.6879843,109.0
9.530158,8.724936,0.63169795,86.0
7.1340933,9.250073,-0.3112149,89.0
6.0935707,8.62114,1.8056781,1.0
7.6822395,9.242096,-0.38734904,63.0
7.0510893,8.947618,1.8915417,42.0
6.9581547,9.262177,0.07469247,69.0
5.783464,8.611249,2.3211772,42.0
7.510841,9.299866,0.014284928,1.0
8.322309,9.27409,-0.446343,1.0
7.955413,8.972888,1.9068141,57.0
8.920414,9.254843,-0.53919554,42.0
8.884421,8.994125,1.896769,7.0
8.114731,9.303056,-0.027049607,1.0
8.719541,9.307482,-0.10857796,39.0
6.876413,8.934077,1.2370906,70.0
7.4647994,9.058844,1.2276052,38.0
9.053624,8.92567,-0.18012007,107.0
8.156938,9.113085,1.2368082,72.0
8.855523,9.202468,1.2102315,107.0
7.7937903,8.9636755,1.5953286,43.0
8.385585,8.965462,1.5913419,93.0
9.196547,8.865857,1.1475507,103.0
9.03429,8.959774,1.5826662,35.0
7.1221776,9.288773,0.4856549,71.0
7.6759267,9.292194,0.4365414,33.0
6.7905173,9.115543,0.8567984,117.0
7.2418637,9.031505,0.81609064,83.0
8.282852,9.299141,0.39778024,1.0
7.807874,9.02618,0.77886206,197.0
8.341887,8.963665,0.7266874,109.0
8.9141035,8.880406,0.6832939,92.0
9.39451,8.710115,0.62515604,143.0
7.0419936,9.250104,-0.31038395,49.0
6.0145545,8.623654,1.7981246,1.0
7.5922413,9.251593,-0.38631135,52.0
6.9643908,8.952885,1.8832086,12.0
6.867741,9.262287,0.07370182,76.0
5.6938014,8.593694,2.306562,31.0
7.3822956,9.259427,0.0128596,1.0
8.2122555,9.267752,-0.44441277,1.0
7.854748,8.972115,1.8959501,46.0
8.842762,9.290467,-0.53832185,38.0
8.765508,8.986183,1.883182,1.0
7.998802,9.287087,-0.027839422,1.0
8.601026,9.297583,-0.1087799,27.0
6.7925863,8.940699,1.2315178,73.0
7.376325,9.067096,1.221824,25.0
8.976168,8.961149,-0.1800203,112.0
8.057479,9.116431,1.2296554,67.0
8.750867,9.20898,1.2030894,91.0
7.694861,8.962844,1.5857913,44.0
8.273898,8.958416,1.5798954,49.0
9.177624,8.959666,1.1527597,126.0
8.951289,8.9896345,1.5775706,48.0
7.03241,9.291879,0.482888,75.0
7.585761,9.301589,0.43416062,47.0
6.455264,8.778699,0.8156319,163.0
7.1316605,9.009719,0.8090244,102.0
8.186063,9.3074255,0.39528728,1.0
8.802389,9.307908,0.3310064,51.0
7.7057695,9.021912,0.7734987,198.0
8.234014,8.960166,0.7213326,111.0
9.145048,8.958711,0.26878625,123.0
8.853922,8.93198,0.682903,85.0
9.287123,8.719858,0.6208741,86.0
6.954971,9.255747,-0.3096717,83.0
5.9156995,8.596264,1.7843907,1.0
7.5049505,9.263429,-0.38535666,78.0
6.8718867,8.949608,1.8732089,45.0
6.7764235,9.260013,0.072674476,48.0
5.6216097,8.60151,2.299033,5.0
7.3004203,9.27581,0.012376006,1.0
8.102613,9.260399,-0.44248253,1.0
7.7505426,8.965944,1.8841275,28.0
8.73073,9.289121,-0.535888,42.0
7.9118447,9.303597,-0.02823433,1.0
8.5019,9.307206,-0.108917594,55.0
6.725375,8.939248,1.2264295,73.0
7.307285,9.069315,1.2169678,41.0
8.981659,9.051695,-0.18024641,115.0
7.9791493,9.113866,1.2236202,72.0
8.655482,9.195165,1.195107,104.0
7.6103177,8.949182,1.5762541,44.0
8.187395,8.949162,1.5706823,91.0
9.121149,8.988825,1.1507562,89.0
8.850466,8.972361,1.5663065,86.0
6.9586716,9.284909,0.48022756,75.0
7.515428,9.304641,0.43216076,40.0
6.3904295,8.776764,0.8121432,178.0
7.062009,9.008762,0.80540913,106.0
8.09495,9.291583,0.39219257,1.0
8.710524,9.29831,0.32844576,53.0
7.6143265,9.000189,0.7676757,205.0
8.147299,8.950257,0.7166825,110.0
9.023258,8.922867,0.26522997,70.0
8.829881,8.992146,0.6845968,91.0
9.176271,8.697713,0.6151648,166.0
6.8791213,9.245044,-0.30887043,48.0
5.8707004,8.617523,1.7830173,1.0
7.4223385,9.250411,-0.38406992,43.0
6.8021183,8.945836,1.8655424,12.0
6.7104735,9.261037,0.07197735,57.0
5.5683413,8.608229,2.293718,1.0
7.2196646,9.262855,0.011612437,1.0
8.024903,9.259139,-0.44119573,1.0
7.665916,8.952806,1.8735831,53.0
8.628184,9.267342,-0.5332045,35.0
7.82291,9.287167,-0.02886259,1.0
8.406863,9.290895,-0.109092005,35.0
6.6431017,8.946215,1.221099,75.0
7.2129755,9.068471,1.2100304,40.0
8.986097,9.170901,-0.18053901,87.0
7.8841085,9.120154,1.217138,73.0
8.541922,9.189729,1.1864944,89.0
7.5082216,8.94218,1.5658499,45.0
8.076473,8.940268,1.5592358,49.0
8.998395,8.979786,1.1413399,119.0
9.379981,8.705441,1.0513598,103.0
8.7566395,8.9894,1.5590652,48.0
6.8658347,9.281824,0.4771414,78.0
7.4181256,9.303323,0.42920858,23.0
6.3015304,8.769757,0.8070846,180.0
6.963697,8.999433,0.7998219,104.0
7.9908895,9.289167,0.38918382,1.0
8.601625,9.298651,0.3257388,54.0
7.5295606,9.014134,0.76430446,205.0
8.04948,8.955345,0.7123141,113.0
8.955734,8.968051,0.26472193,86.0
8.805109,9.080452,0.6875934,96.0
9.1877985,8.818686,0.6206362,94.0
6.7854724,9.239666,-0.30798012,85.0
5.7879467,8.611666,1.7740903,1.0
7.325499,9.248341,-0.38278317,35.0
6.710179,8.941145,1.8555428,46.0
6.302929,8.812788,0.060933366,142.0
5.50787,8.633168,2.291061,1.0
7.123434,9.258964,0.010823416,1.0
7.910778,9.243965,-0.4390675,1.0
7.5764394,8.961538,1.8652753,31.0
8.516929,9.264063,-0.53077066,21.0
8.440521,8.958138,1.8457423,25.0
7.72484,9.288402,-0.02941905,1.0
8.293588,9.282475,-0.10928018,23.0
6.5773954,8.97495,1.2191606,70.0
7.1361814,9.088647,1.2063304,26.0
8.967175,9.267488,-0.18072522,102.0
7.802182,9.140748,1.212891,74.0
8.439551,9.194935,1.1795623,103.0
7.415338,8.944931,1.5574687,46.0
7.9818373,8.948043,1.5511395,94.0
8.96136,9.055981,1.1441448,93.0
9.265513,8.708384,1.0437686,88.0
8.635516,8.977004,1.5464602,86.0
6.772138,9.276326,0.47394887,84.0
7.3161845,9.294881,0.42587548,25.0
6.2175703,8.768492,0.80272377,187.0
6.873059,8.998716,0.7952206,106.0
7.8949275,9.294965,0.38669088,1.0
8.4890175,9.293571,0.32281235,49.0
7.4309945,9.010425,0.7592476,202.0
7.949269,8.956579,0.707664,110.0
8.956665,9.082592,0.26732564,86.0
8.743748,9.131266,0.6872026,88.0
9.16662,8.909581,0.62349087,180.0
6.7027,9.248071,-0.30735692,47.0
5.721783,8.629776,1.7703134,1.0
7.236386,9.254858,-0.3817455,41.0
6.629158,8.949897,1.8485429,25.0
6.100238,8.6428175,0.056236923,130.0
5.4348817,8.637853,2.283089,1.0
7.037236,9.266956,0.010238012,1.0
6.1142197,8.642622,2.308449,65.0
7.8151927,9.249135,-0.4376322,1.0
7.482107,8.963429,1.8556894,54.0
8.406057,9.259754,-0.5283368,20.0
8.339548,8.963303,1.8357786,19.0
7.605535,9.262462,-0.030280665,1.0
8.182077,9.274498,-0.109463766,25.0
6.4860597,8.967777,1.2118917,70.0
7.0472217,9.092536,1.200318,38.0
8.878422,9.291786,-0.18057892,27.0
9.153765,8.909657,-0.23955403,69.0
7.703693,9.140888,1.2057382,79.0
8.326751,9.187448,1.1709498,103.0
7.320216,8.943803,1.5485095,46.0
7.8729973,8.938661,1.5399722,52.0
8.947327,9.156297,1.1503555,121.0
9.168719,8.72668,1.0383993,103.0
8.529886,8.979275,1.5368053,48.0
6.45635,8.960125,0.45043036,130.0
7.229385,9.304432,0.42368516,53.0
6.083755,8.694595,0.7906878,110.0
6.793531,9.011524,0.79209834,106.0
7.788958,9.287659,0.3835102,1.0
8.384862,9.296339,0.32032487,62.0
7.335286,9.008931,0.7544972,196.0
7.8480434,8.955411,0.70287293,114.0
8.945368,9.186023,0.2694213,88.0
8.641029,9.138098,0.682903,79.0
9.069132,8.926453,0.6200415,151.0
6.2313356,8.710209,-0.296792,99.0
5.648094,8.635837,1.7641332,1.0
7.1389103,9.249557,-0.38041726,48.0
6.534293,8.938906,1.8375432,51.0
6.0309978,8.6596155,0.05575994,85.0
5.3610272,8.640304,2.274674,1.0
6.950019,9.272634,0.009627158,1.0
6.040742,8.653684,2.3011026,71.0
7.7224126,9.256546,-0.43629587,1.0
7.38304,8.958388,1.8448255,67.0
8.295578,9.25442,-0.5259029,23.0
8.234824,8.963192,1.8249091,11.0
7.5321064,9.291397,-0.03049607,1.0
8.093371,9.291088,-0.109569326,40.0
6.400827,8.967902,1.2058343,73.0
6.958496,9.095669,1.1943055,24.0
8.760944,9.284743,-0.18029296,44.0
9.013434,8.884298,-0.23861457,121.0
7.6321526,9.172282,1.2032794,80.0
8.225009,9.190747,1.1640177,90.0
7.225403,8.941834,1.5395503,46.0
7.7711034,8.935727,1.5302008,56.0
8.906174,9.229543,1.1527597,92.0
9.163969,8.832405,1.0448796,87.0
8.416449,8.971888,1.5255412,86.0
9.028493,8.957216,1.4919031,45.0
6.3145022,8.879911,0.4425554,205.0
7.1342263,9.302178,0.4208282,58.0
6.0030427,8.694888,0.7866758,113.0
6.5435524,8.795319,0.76547676,67.0
7.691025,9.288637,0.38084534,1.0
8.279676,9.296676,0.31776422,48.0
7.2423854,9.009706,0.7500533,179.0
7.7510724,8.957846,0.69850457,109.0
8.933124,9.289667,0.27151698,79.0
8.537212,9.14254,0.6784732,83.0
8.957631,8.928381,0.6154027,160.0
6.082168,8.6150465,-0.29435852,145.0
5.5681667,8.631367,1.7558929,1.0
7.0393596,9.240221,-0.379006,73.0
6.4005027,8.872773,1.8152105,43.0
5.931297,8.631329,0.054292303,130.0
5.2721395,8.617183,2.2596157,1.0
6.851087,9.261526,0.008761779,1.0
5.948485,8.636861,2.28641,51.0
7.601941,9.229158,-0.4338707,1.0
7.274386,8.940188,1.8314053,48.0
8.1855,9.248066,-0.5234691,26.0
8.130434,8.962122,1.8140395,46.0
7.4286876,9.28225,-0.031142281,1.0
7.9799542,9.278163,-0.109762095,26.0
6.192802,8.76257,1.1707011,161.0
6.8987226,9.106219,1.191068,38.0
8.661195,9.265931,-0.1800203,75.0
8.970048,8.925266,-0.23859864,92.0
7.5497417,9.160534,1.1963501,86.0
8.130057,9.171444,1.1558253,111.0
7.1474047,8.930912,1.531169,46.0
7.6900554,8.9273,1.5218253,97.0
8.803554,9.209462,1.1441448,117.0
9.177997,8.929562,1.0521003,101.0
8.33098,8.964919,1.516959,46.0
8.932834,8.946404,1.4822364,44.0
6.106321,8.672466,0.42712474,140.0
7.0551915,9.2896185,0.4180665,44.0
5.93846,8.688493,0.7830127,111.0
6.442773,8.745927,0.7572602,103.0
7.606705,9.275268,0.37809446,35.0
8.19471,9.289194,0.3154962,87.0
7.1614304,8.995304,0.7453029,180.0
7.669747,8.948895,0.69427717,109.0
9.0982,8.900159,0.1801665,174.0
8.449391,9.134249,0.67417365,87.0
8.933784,8.988873,0.61694896,169.0
6.0323634,8.630482,-0.2941211,89.0
5.517918,8.642546,1.7528027,1.0
6.966769,9.235031,-0.3780098,43.0
6.144881,8.60475,1.7532121,13.0
5.8838277,8.64925,0.054072157,85.0
5.2173805,8.618545,2.253415,1.0
6.7789373,9.255038,0.008150924,1.0
5.890068,8.639016,2.279496,66.0
7.534402,9.235403,-0.43293032,1.0
7.1975646,8.931264,1.8224584,63.0
8.098258,9.237005,-0.5214097,39.0
8.036476,8.943071,1.8022641,49.0
7.352635,9.276348,-0.031608988,1.0
7.901057,9.274616,-0.10988601,41.0
6.054951,8.682276,1.1530135,95.0
6.8115587,9.109664,1.1852869,24.0
8.54593,9.258352,-0.179741,47.0
8.964592,9.032471,-0.23917188,115.0
7.461994,9.170738,1.1909856,82.0
8.043397,9.189468,1.1512039,92.0
7.067892,8.946098,1.5256779,48.0
7.597813,8.933265,1.5140082,53.0
8.700515,9.21677,1.1375334,93.0
9.091873,8.957748,1.0482122,82.0
8.230348,8.968824,1.5081086,53.0
8.817852,8.94312,1.4715521,46.0
6.023301,8.669603,0.42446426,138.0
6.9594526,9.284276,0.4151143,39.0
5.860427,8.690898,0.77934957,111.0
6.3594913,8.747595,0.7533163,93.0
7.5282016,9.297997,0.37671906,32.0
8.080943,9.277292,0.31242344,45.0
7.0654283,8.9898815,0.74039924,169.0
7.5746274,8.951288,0.69004977,108.0
8.770277,9.323169,0.26872274,16.0
8.999419,8.915005,0.17866759,96.0
8.346151,9.136982,0.66974384,81.0
8.917749,9.086083,0.62039834,160.0
5.942921,8.617112,-0.29320112,119.0
5.419553,8.60693,1.7383822,1.0
6.8715005,9.228969,-0.37672305,30.0
6.063358,8.604553,1.7452123,46.0
5.7882566,8.624533,0.05271459,134.0
5.124277,8.585762,2.2361424,1.0
6.68542,9.248889,0.0073873554,1.0
5.802881,8.627308,2.2665317,69.0
7.4349275,9.231104,-0.43129703,1.0
7.106966,8.93299,1.8135116,73.0
8.000735,9.242429,-0.51953745,27.0
7.9354267,8.943185,1.7919984,46.0
7.253625,9.270316,-0.03220135,1.0
6.8429713,8.969356,2.3786116,46.0
7.7961893,9.269054,-0.110051244,41.0
5.973346,8.680845,1.1471984,110.0
6.738815,9.13153,1.1822807,37.0
8.448588,9.268936,-0.17954814,49.0
8.966553,9.148514,-0.23984066,89.0
7.3669662,9.170895,1.1842798,141.0
7.934681,9.181221,1.1430115,114.0
6.9726863,8.940324,1.5164298,71.0
7.49942,8.930851,1.5047952,58.0
8.5841875,9.2085705,1.1289185,124.0
8.966224,8.945888,1.03914,93.0
8.116713,8.957112,1.4965763,48.0
8.708812,8.944423,1.4618855,45.0
5.9405594,8.66604,0.4218038,136.0
6.8759704,9.294138,0.41311446,25.0
5.7759976,8.682701,0.77463984,116.0
6.276444,8.748564,0.74937236,102.0
7.412366,9.273219,0.3727647,25.0
7.985932,9.285515,0.31037495,53.0
6.974657,8.989921,0.7361086,186.0
7.474655,8.946725,0.6852587,97.0
8.673496,9.33702,0.26694462,1.0
8.948883,8.977028,0.17886744,132.0
8.253886,9.150653,0.6663563,96.0
8.9147625,9.19776,0.62503713,164.0
5.8707128,8.627793,-0.29272628,89.0
5.341539,8.602264,1.7304852,1.0
6.7825184,9.230122,-0.37564385,41.0
5.977565,8.597206,1.7358793,27.0
5.7207456,8.640697,0.052274298,88.0
5.0741725,8.624521,2.237914,50.0
6.255786,8.772014,-0.00073192804,1.0
5.7193227,8.619722,2.2548642,65.0
7.344497,9.236892,-0.43001023,1.0
7.0129814,8.929267,1.8036063,51.0
7.9164786,9.262168,-0.5182893,62.0
7.8529706,8.963171,1.7859597,26.0
7.165961,9.277671,-0.032632157,1.0
6.7630067,8.9808855,2.3702457,61.0
7.696827,9.268688,-0.11019811,50.0
5.9008946,8.691891,1.1433216,105.0
6.654341,9.136805,1.176962,24.0
8.339433,9.265266,-0.17929545,72.0
8.956263,9.253456,-0.24038205,77.0
7.288251,9.190492,1.1804799,89.0
7.83803,9.185571,1.1367096,92.0
6.883856,8.94156,1.5086266,44.0
7.405159,8.932123,1.4964197,98.0
8.4831085,9.2154045,1.1225075,94.0
8.94632,9.038789,1.0439538,97.0
8.018063,8.960599,1.4879942,55.0
8.605615,8.950421,1.4532363,46.0
5.85587,8.658469,0.4189305,134.0
6.783193,9.290427,0.41035274,63.0
5.696263,8.68046,0.77062786,111.0
6.182089,8.732589,0.7437851,106.0
7.3255477,9.283483,0.37078753,39.0
7.8833604,9.283783,0.30788743,80.0
6.8781176,8.981249,0.73105174,198.0
7.3686805,8.933578,0.6797631,125.0
8.53777,9.307243,0.2633248,1.0
8.965358,9.107052,0.18146554,103.0
8.153831,9.1545725,0.6621871,72.0
8.902427,9.301114,0.6289623,129.0
5.7830467,8.614634,-0.291836,118.0
5.2586713,8.588549,1.7208714,1.0
6.6961484,9.233755,-0.37464768,32.0
5.8954616,8.593995,1.7275462,50.0
5.637999,8.632884,0.051320333,106.0
5.0618076,8.728867,2.2569582,40.0
6.066684,8.621684,-0.0036843948,72.0
5.6489615,8.63101,2.248382,65.0
7.2481303,9.234035,-0.42847592,1.0
6.935015,8.94503,1.7978547,70.0
7.806455,9.250702,-0.5157931,62.0
7.7433605,8.951121,1.7735804,48.0
7.0736527,9.277923,-0.033134766,1.0
6.672694,8.977619,2.3581152,68.0
7.596508,9.265897,-0.11034957,68.0
7.459005,8.997626,2.3600888,54.0
5.818627,8.687505,1.1372643,107.0
6.5770426,9.151046,1.1730307,38.0
8.231984,9.26209,-0.17904939,46.0
7.1875777,9.181255,1.1726565,118.0
7.7403555,9.187551,1.1301976,113.0
6.786925,8.930989,1.4988004,31.0
7.3124366,8.934095,1.4883233,51.0
8.375604,9.21396,1.1150947,122.0
8.933967,9.140322,1.0498786,97.0
7.9209995,8.96469,1.4796802,50.0
8.498583,8.95117,1.443824,47.0
5.7836685,8.668475,0.4172278,133.0
6.413274,8.902277,0.38502118,138.0
5.615706,8.675886,0.7664414,117.0
6.0664377,8.684771,0.73507553,52.0
7.229093,9.280395,0.36812267,39.0
7.7888474,9.290307,0.30583894,49.0
6.790361,8.982872,0.72706753,196.0
7.283367,8.94417,0.6765221,78.0
8.421519,9.296905,0.26059407,1.0
8.947046,9.203281,0.18286452,132.0
8.059316,9.163601,0.658539,94.0
5.7111917,8.624087,-0.29136115,92.0
5.1944556,8.604532,1.717438,1.0
6.2530284,8.739726,-0.36095014,153.0
5.816961,8.594985,1.720213,28.0
5.564214,8.63784,0.050659895,111.0
5.061831,8.857127,2.282203,11.0
5.982656,8.616979,-0.0043461546,82.0
5.567,8.623732,2.2371466,73.0
7.1496468,9.227167,-0.42684266,1.0
6.848749,8.949176,1.7898664,73.0
7.70843,9.252026,-0.51385844,68.0
7.6432204,8.94856,1.7633147,28.0
6.984025,9.280581,-0.033601474,1.0
6.5803833,8.970415,2.3451478,47.0
7.5167036,9.287052,-0.110427596,55.0
7.3712344,9.006463,2.350054,48.0
5.744286,8.694039,1.1329029,114.0
6.397285,9.020646,1.1485184,49.0
8.140708,9.275995,-0.17888314,54.0
8.32931,9.000718,2.3609762,38.0
8.752649,9.273779,-0.23937888,76.0
7.1042857,9.193165,1.1679624,91.0
7.6365943,9.181033,1.1226354,94.0
6.706984,8.94175,1.4930202,43.0
7.2100034,8.922951,1.4779936,56.0
8.271107,9.214497,1.1080825,98.0
8.868049,9.187692,1.0487677,95.0
7.826805,8.970907,1.4719026,57.0
8.37965,8.937923,1.4321222,67.0
5.7039104,8.6662245,0.4147802,133.0
6.302668,8.865972,0.3805453,153.0
5.538639,8.675689,0.7627783,118.0
5.973185,8.666988,0.7294883,78.0
7.1475506,9.295496,0.36648935,28.0
7.6728563,9.269875,0.30254668,108.0
6.513713,8.729279,0.6987184,211.0
7.1781693,8.929201,0.6710264,114.0
8.336334,9.319793,0.25932395,1.0
7.9623985,9.168786,0.6546303,74.0
8.664766,9.284,0.6184952,52.0
5.628543,8.616216,-0.29058957,117.0
5.120205,8.603096,1.710571,1.0
6.083513,8.617344,-0.35684088,87.0
5.7419763,8.600244,1.7138798,50.0
5.485245,8.633761,0.049816005,113.0
5.053765,8.973821,2.3043475,46.0
5.905729,8.621445,-0.0048552006,83.0
5.488509,8.620702,2.2272074,46.0
7.0551734,9.2242,-0.42535785,1.0
6.7579575,8.946283,1.7806002,75.0
7.6043353,9.244775,-0.5116118,89.0
7.55236,8.955658,1.7551626,50.0
6.880368,9.263191,-0.034283586,1.0
6.4907155,8.965581,2.3330173,61.0
7.413163,9.2779255,-0.11059283,38.0
7.2713084,8.999335,2.3360054,57.0
5.6826696,8.689403,1.1282992,92.0
6.0891724,8.673983,1.094869,68.0
8.04583,9.255303,-0.17862378,48.0
8.229871,8.977555,2.3444912,43.0
8.660964,9.263866,-0.23882157,43.0
7.017502,9.169645,1.1599156,123.0
7.555227,9.170929,1.1163335,99.0
6.6188655,8.911212,1.4817489,30.0
7.1368713,8.918227,1.471014,101.0
8.1748,9.193799,1.1000688,123.0
8.770892,9.17333,1.041547,95.0
7.7327094,8.94762,1.4611748,51.0
8.290105,8.926516,1.4232187,69.0
5.638011,8.6544695,0.41233256,138.0
6.092502,8.6573715,0.3666415,52.0
5.476477,8.667963,0.7592896,116.0
5.9052396,8.655575,0.7255444,90.0
7.057773,9.268585,0.36322272,38.0
7.5960746,9.265798,0.3006445,51.0
6.441772,8.71812,0.6947343,208.0
7.104877,8.9239645,0.6675036,74.0
8.236748,9.296042,0.25665674,1.0
8.8342705,9.289528,0.18246481,45.0
7.8970213,9.180449,0.6524154,87.0
8.584264,9.285207,0.6152837,66.0
5.5781355,8.627511,-0.29032248,89.0
5.129419,8.712124,1.7277384,1.0
6.019864,8.613182,-0.35601074,104.0
5.681756,8.597631,1.70788,27.0
5.436011,8.645954,0.049522474,86.0
5.070051,9.103292,2.3318067,47.0
5.850403,8.62769,-0.0051860805,87.0
5.449913,8.64977,2.2280717,59.0
6.9815173,9.217446,-0.42412052,1.0
6.681513,8.93212,1.7713338,73.0
7.5353813,9.249554,-0.5103637,31.0
7.470702,8.944178,1.7458026,28.0
6.8118167,9.261635,-0.034660544,1.0
6.2517815,8.72071,2.260652,51.0
7.3308034,9.264203,-0.1107351,23.0
7.194467,8.990726,2.3247664,49.0
5.594702,8.673154,1.120788,135.0
6.009598,8.67619,1.0897815,81.0
7.942015,9.252482,-0.17839102,51.0
8.123336,8.973705,2.3299232,48.0
8.538715,9.249139,-0.23807319,30.0
6.938236,9.184973,1.1558921,74.0
7.455954,9.167371,1.1094015,98.0
6.531233,8.9094715,1.4739459,43.0
7.040092,8.911683,1.461801,48.0
8.07625,9.198558,1.093858,100.0
8.654195,9.166089,1.0335855,91.0
7.6339693,8.946203,1.4523245,60.0
8.176096,8.915656,1.4122801,72.0
5.5609202,8.654394,0.41009778,138.0
6.000281,8.641403,0.36349887,106.0
5.4019527,8.6700325,0.75597537,116.0
5.8328795,8.666085,0.72291505,76.0
6.9610705,9.261567,0.36047187,25.0
7.5062056,9.274556,0.29881546,50.0
6.3610854,8.722927,0.691363,203.0
7.015305,8.926138,0.6636989,87.0
8.128252,9.29036,0.25424352,1.0
8.7154045,9.280819,0.18026643,52.0
7.797923,9.181139,0.64824617,92.0
8.4731655,9.281541,0.61064494,70.0
5.4927335,8.613429,-0.28946185,120.0
5.117942,8.819249,1.7428457,1.0
5.940584,8.614669,-0.35509756,101.0
5.6017,8.593563,1.6998802,51.0
5.345869,8.622085,0.048274983,129.0
5.0594997,9.2205515,2.3539512,42.0
5.764853,8.617799,-0.005898745,73.0
5.367543,8.639113,2.216404,65.0
6.904356,9.235475,-0.42332864,1.0
6.599525,8.938934,1.7643042,71.0
7.433174,9.242271,-0.5081795,41.0
7.3677177,8.934585,1.7346312,50.0
6.7253637,9.265358,-0.03509135,1.0
6.1011147,8.623921,2.225097,42.0
7.2391357,9.267582,-0.11085902,23.0
7.1049695,8.994299,2.3139288,58.0
5.5209746,8.677946,1.1164267,104.0
5.9324846,8.681019,1.0851566,97.0
7.8450074,9.256364,-0.17819153,75.0
8.028927,8.982063,2.3188052,27.0
8.438591,9.256857,-0.23757955,43.0
8.972276,9.001339,2.331172,1.0
6.836539,9.1693535,1.1476216,122.0
7.364513,9.17222,1.1037297,97.0
6.241404,8.626013,1.4155664,30.0
6.954664,8.918313,1.4551007,59.0
7.9649534,9.187385,1.0856439,129.0
8.54746,9.167927,1.0269202,95.0
7.5304565,8.93783,1.4424014,49.0
8.069222,8.911059,1.4026134,39.0
5.481922,8.650315,0.40765014,134.0
5.9243546,8.647661,0.36168945,91.0
5.32554,8.66811,0.75231224,116.0
5.7506695,8.661103,0.7188068,94.0
6.8789883,9.272984,0.35875258,37.0
7.410277,9.2747555,0.2966206,91.0
6.284079,8.731928,0.68845147,203.0
6.930891,8.933836,0.6604579,81.0
8.031895,9.297317,0.2524019,1.0
8.609256,9.284161,0.1785177,58.0
7.701689,9.184011,0.64433753,74.0
8.366472,9.28129,0.606363,75.0
5.4268317,8.629127,-0.2891354,95.0
5.108244,8.931709,1.758983,1.0
5.8592677,8.6122,-0.35410136,101.0
5.5304785,8.602083,1.694547,28.0
5.2863917,8.646962,0.048091527,88.0
5.056915,9.355209,2.3805246,10.0
5.6862884,8.617175,-0.006458695,80.0
5.286547,8.629428,2.2051685,72.0
6.808296,9.227123,-0.42174482,1.0
6.5165563,8.943475,1.756955,66.0
7.3400774,9.245016,-0.50643206,42.0
7.285166,8.948549,1.7282906,29.0
6.370777,8.892314,-0.039668683,1.0
6.030063,8.637999,2.2188225,11.0
7.14282,9.26385,-0.111001305,24.0
7.0060515,8.98476,2.2998803,47.0
5.44215,8.673738,1.1108539,104.0
5.8466387,8.672061,1.0786817,82.0
7.738019,9.247106,-0.17793882,50.0
7.9075103,8.958641,2.2996366,45.0
8.315922,9.238451,-0.23681524,30.0
8.847846,8.98898,2.3132415,1.0
6.7541146,9.178467,1.1429276,101.0
7.2708306,9.173172,1.0976379,97.0
6.13203,8.587646,1.4016942,48.0
6.862167,8.91482,1.4467251,100.0
7.8760743,9.200914,1.0808356,103.0
8.450503,9.179027,1.0215509,99.0
7.438735,8.942244,1.434892,90.0
7.969356,8.912857,1.3942187,29.0
5.4053063,8.648978,0.40541536,138.0
5.848587,8.653308,0.35988006,95.0
5.2534814,8.672395,0.74934685,114.0
5.6687536,8.655433,0.71469855,75.0
6.782908,9.264364,0.35600173,26.0
7.3047194,9.26158,0.29384047,41.0
6.193393,8.720771,0.6837011,190.0
6.8490896,8.94399,0.6574987,72.0
7.929298,9.295816,0.2502427,1.0
8.495296,9.277702,0.17646919,48.0
7.617159,9.199894,0.64160144,90.0
8.270757,9.291979,0.6030325,81.0
5.3493943,8.625619,-0.28848252,120.0
5.104081,9.05642,1.7775238,1.0
5.782688,8.615683,-0.35327122,102.0
5.4540753,8.601732,1.6875472,51.0
5.255621,8.719444,0.04893542,91.0
5.0437016,9.472961,2.4026692,44.0
5.6112423,8.620929,-0.006942289,87.0
5.2079115,8.622406,2.1947973,44.0
6.724356,9.234115,-0.420656,1.0
6.257894,8.701754,1.7007179,53.0
7.2410617,9.239101,-0.50437266,41.0
7.1841106,8.938748,1.717421,50.0
6.1075153,8.6378355,-0.042899743,70.0
5.9535446,8.643459,2.2104566,38.0
7.049267,9.262454,-0.1111344,37.0
6.9159207,8.985189,2.2886412,28.0
5.369844,8.679025,1.1067348,102.0
5.7666583,8.670629,1.073363,78.0
7.6327295,9.238414,-0.17769276,81.0
7.8124504,8.96369,2.2881353,12.0
8.229758,9.259173,-0.23648086,41.0
6.6613617,9.172416,1.1362219,98.0
7.1774287,9.173309,1.091546,97.0
6.0597634,8.600085,1.39707,52.0
6.772392,8.913668,1.438908,46.0
7.7693934,9.192385,1.0732225,128.0
8.344353,9.178973,1.0148855,89.0
7.3497677,8.948927,1.427919,47.0
7.8684716,8.912269,1.3855695,68.0
5.3393683,8.664044,0.40424475,141.0
5.7763176,8.663325,0.35835636,94.0
5.247758,8.7874365,0.7577197,92.0
5.5979853,8.665797,0.7122336,89.0
6.590317,9.120306,0.3461159,42.0
7.2266946,9.282095,0.2926699,99.0
6.0985317,8.70228,0.67833775,147.0
6.77467,8.963007,0.655385,75.0
7.833465,9.301051,0.24840105,1.0
8.404594,9.295356,0.17527007,56.0
7.523912,9.2042465,0.63795334,78.0
8.160713,9.285362,0.59839374,71.0
5.2763753,8.628312,-0.28794834,96.0
5.0918784,9.169357,1.793661,1.0
5.6996546,8.608554,-0.352192,103.0
5.3757977,8.597422,1.6798807,28.0
5.2455263,8.828022,0.050549824,115.0
5.033719,9.599559,2.427028,42.0
5.5385423,8.627442,-0.007374978,75.0
5.145613,8.641551,2.1913402,67.0
6.4252768,8.939664,-0.41041088,1.0
6.1039553,8.6006365,1.6729189,34.0
7.1362824,9.224415,-0.5020012,40.0
7.087163,8.932672,1.7074572,28.0
6.0223107,8.631696,-0.043384403,45.0
5.8717155,8.6402025,2.199999,16.0
6.951198,9.253862,-0.111285865,23.0
6.814182,8.969262,2.2733884,50.0
5.286351,8.665081,1.0999506,137.0
5.6869273,8.668536,1.0680443,96.0
7.549302,9.25515,-0.17755976,32.0
7.7150855,8.964919,2.2758675,48.0
8.109301,9.240154,-0.23573247,34.0
6.5781918,9.178504,1.1313043,103.0
7.0830946,9.171066,1.0852442,95.0
5.977444,8.597313,1.3898449,80.0
6.682903,8.91174,1.431091,59.0
7.678401,9.20124,1.0680134,106.0
8.230541,9.169071,1.0071093,98.0
7.254783,8.947139,1.419605,90.0
7.777054,8.921218,1.3787011,72.0
5.2620845,8.659826,0.40190354,139.0
5.68874,8.64944,0.35549942,89.0
5.2287064,8.882118,0.76399934,123.0
5.518717,8.662184,0.70845395,89.0
6.358152,8.915557,0.33313534,99.0
7.1267295,9.273509,0.2901824,35.0
6.0109344,8.692798,0.6738938,143.0
6.6907163,8.968667,0.65214396,89.0
7.740432,9.308529,0.2466864,1.0
8.280659,9.275004,0.17282185,52.0
7.4396667,9.218678,0.6352173,92.0
8.0628805,9.291283,0.59482545,87.0
5.250873,8.709305,-0.2887793,103.0
5.081283,9.287686,1.8108283,1.0
5.6246166,8.612428,-0.35140336,98.0
5.3019443,8.599175,1.6735476,51.0
5.2383018,8.943726,0.05231099,92.0
5.021451,9.724666,2.4509442,36.0
5.4584703,8.621571,-0.007985833,80.0
5.097167,8.683804,2.193933,40.0
6.0528774,8.532423,-0.3968497,1.0
6.026078,8.604812,1.6662087,34.0
7.051431,9.234165,-0.5006283,29.0
7.000352,8.938167,1.6999089,51.0
5.9476027,8.639672,-0.04370751,100.0
5.8118825,8.668792,2.1979077,1.0
6.8762026,9.274892,-0.11135012,35.0
6.7435527,8.993114,2.2685716,29.0
5.246482,8.691598,1.1001928,89.0
5.622142,8.658629,1.0629568,82.0
7.4629626,9.237655,-0.17733365,47.0
7.6308174,8.951807,2.2632163,26.0
8.030173,9.237572,-0.23530254,44.0
6.3306603,8.920519,1.0915169,107.0
7.0070996,9.161744,1.0795726,98.0
5.916724,8.596004,1.3846428,44.0
6.6183457,8.912965,1.4257864,103.0
7.5982666,9.192777,1.0622035,107.0
8.14747,9.163175,1.0015548,93.0
7.179107,8.939445,1.4123639,45.0
7.698553,8.915789,1.3715782,41.0
5.25814,8.746221,0.40573463,117.0
5.6271467,8.6443815,0.35369003,102.0
5.2467465,9.01008,0.7744654,95.0
5.4575744,8.656098,0.7053317,91.0
6.1160603,8.66103,0.31817758,94.0
7.051408,9.265693,0.28828022,77.0
5.9418225,8.679835,0.6700629,146.0
6.5117245,8.815806,0.6359389,80.0
7.641946,9.27846,0.24395567,1.0
8.202358,9.275039,0.1715228,57.0
7.361328,9.209924,0.6315692,78.0
7.975979,9.279284,0.5909003,82.0
5.2516346,8.804451,-0.28999603,102.0
5.0813665,9.393062,1.8269657,1.0
5.5556607,8.595232,-0.35032418,101.0
5.233541,8.578667,1.6645478,28.0
5.234062,9.034134,0.053705245,109.0
5.035642,9.866459,2.4810605,15.0
5.392218,8.606576,-0.0085966885,81.0
5.097516,8.77857,2.2120826,14.0
6.0286455,8.583789,-0.3975426,55.0
5.9484444,8.579499,1.6556643,24.0
6.967957,9.214744,-0.49856883,62.0
6.916861,8.918014,1.6896431,29.0
5.876501,8.622924,-0.044192165,42.0
5.735385,8.642238,2.184104,1.0
6.7814054,9.237957,-0.11154748,23.0
6.6460676,8.950957,2.2497063,50.0
5.235276,8.797838,1.1106116,107.0
5.545059,8.658696,1.0581006,80.0
7.368687,9.238957,-0.1771408,48.0
7.530273,8.946937,2.249798,52.0
7.9223804,9.230258,-0.23469746,55.0
6.085744,8.689521,1.0544116,100.0
6.908558,9.1516905,1.0724304,98.0
5.829339,8.583829,1.3759726,53.0
6.5211387,8.89854,1.416015,48.0
7.498926,9.189388,1.0555921,104.0
8.041032,9.158896,0.99470437,94.0
7.0785713,8.928386,1.4027089,80.0
7.592087,8.905197,1.3616571,31.0
5.249765,8.858211,0.41062987,116.0
5.5456557,8.637593,0.35130924,91.0
5.234509,9.120715,0.78231496,120.0
5.3798513,8.653024,0.7017164,76.0
6.033042,8.658247,0.3160285,97.0
6.9497375,9.25236,0.2856464,48.0
5.867137,8.687212,0.6673046,150.0
6.3961163,8.774438,0.6287523,100.0
7.5520344,9.287464,0.24236803,16.0
8.087265,9.261727,0.16937438,50.0
7.278645,9.224616,0.6289634,93.0
7.8760986,9.280574,0.5870941,92.0
5.247731,8.925294,-0.29150954,103.0
5.076721,9.527498,1.8472232,1.0
5.4853725,8.60471,-0.34970155,101.0
5.1611795,8.580999,1.658548,58.0
5.2335215,9.165934,0.05579663,93.0
5.3253813,8.619895,-0.008902116,84.0
5.101633,8.913691,2.238443,49.0
5.9564233,8.595169,-0.39675072,66.0
5.8710785,8.582439,1.6489543,43.0
6.8847537,9.224744,-0.4972583,59.0
6.830574,8.922106,1.6820949,54.0
5.7966156,8.621454,-0.044605024,53.0
5.6702914,8.661719,2.179921,1.0
6.6973515,9.244797,-0.11164845,24.0
6.5711203,8.967286,2.243284,29.0
5.224943,8.907706,1.1215149,103.0
5.474584,8.668203,1.0546318,92.0
7.2759256,9.241015,-0.1769546,76.0
7.44136,8.954764,2.2398303,30.0
7.821476,9.229575,-0.23417199,49.0
8.311848,8.965387,2.2411535,24.0
6.006238,8.691568,1.0494941,101.0
6.8306704,9.16784,1.0688593,97.0
5.753325,8.58736,1.3701924,83.0
6.20796,8.585167,1.3543156,59.0
7.4086504,9.195978,1.0503831,105.0
7.9441185,9.164162,0.98914987,95.0
6.9979587,8.941426,1.3973451,43.0
7.5014205,8.911806,1.3547888,42.0
5.2492237,8.985976,0.4164829,114.0
5.471978,8.641924,0.34959507,90.0
5.2318387,9.250647,0.79208326,93.0
5.310745,8.662894,0.6994158,88.0
5.9525585,8.658062,0.31405133,97.0
6.8687973,9.265378,0.28425637,57.0
5.7870817,8.685687,0.6637801,150.0
6.3163295,8.780489,0.6257931,83.0
7.4723024,9.308195,0.24128844,1.0
7.988363,9.265482,0.1678255,59.0
7.178938,9.216562,0.6245336,78.0
7.7649555,9.267224,0.5822174,74.0
5.238517,9.039502,-0.29290435,96.0
5.0578127,9.6377945,1.8626738,1.0
5.4066443,8.60012,-0.34874687,98.0
5.1091805,8.616647,1.6592146,29.0
5.22078,9.278888,0.057484414,111.0
5.2512836,8.620774,-0.00938571,73.0
5.0859594,9.016926,2.2565928,65.0
5.874169,8.591108,-0.3955134,63.0
5.7928104,8.583109,1.6419246,44.0
6.7957587,9.226027,-0.49563575,41.0
6.745705,8.927042,1.6748484,30.0
5.725799,8.632672,-0.044874277,69.0
5.592488,8.660983,2.1707184,1.0
6.2555056,8.7521,-0.11315845,98.0
6.4824185,8.964002,2.232045,50.0
5.224327,9.0367155,1.1350836,49.0
5.390512,8.6552725,1.048157,78.0
7.179757,9.23753,-0.17674844,45.0
7.34892,8.957272,2.2287126,55.0
7.72861,9.237181,-0.23374206,54.0
8.214119,8.972545,2.2298095,6.0
5.9269476,8.692961,1.0445765,103.0
6.739861,9.16577,1.0629776,97.0
5.6785855,8.591929,1.3647014,47.0
6.12506,8.583756,1.347336,100.0
7.317353,9.200238,1.0449737,105.0
7.842268,9.162531,0.98285484,98.0
6.906583,8.939672,1.3895675,50.0
7.4020786,8.906965,1.3461396,32.0
5.2423167,9.105416,0.4218038,113.0
5.402711,8.652441,0.34826183,90.0
5.218075,9.363478,0.80010724,125.0
5.255175,8.694387,0.6992515,71.0
5.875672,8.662176,0.31233203,92.0
6.7808704,9.26808,0.2824273,50.0
5.7072783,8.683499,0.6602556,151.0
6.235563,8.78426,0.622693,85.0
7.3678308,9.296916,0.23893875,1.0
7.894928,9.274444,0.16647649,53.0
7.103895,9.239306,0.6227096,97.0
7.6797967,9.28357,0.5797196,75.0
5.226096,9.150468,-0.2942398,122.0
5.0620527,9.795532,1.8873948,1.0
5.3324194,8.60167,-0.34795824,101.0
5.1128564,8.747209,1.6785475,10.0
5.216486,9.409548,0.05953911,90.0
5.2455688,8.734079,-0.008189452,76.0
5.0739484,9.128838,2.2769032,50.0
5.7966614,8.592993,-0.39447403,110.0
5.7125845,8.5798435,1.6342559,47.0
6.711734,9.233017,-0.49426278,43.0
6.6634145,8.934431,1.668206,53.0
5.6397877,8.619883,-0.045394838,45.0
5.492925,8.624927,2.1527317,10.0
6.0778756,8.618217,-0.11364496,84.0
6.1589584,8.631851,2.1381195,56.0
5.1948695,9.117714,1.1418679,53.0
5.3224645,8.66699,1.0451508,93.0
7.099711,9.253859,-0.17662874,44.0
7.2604423,8.963554,2.2187448,69.0
7.6231956,9.228588,-0.23315291,78.0
8.135124,8.99922,2.2235887,1.0
5.8511963,8.698655,1.0403296,102.0
6.655204,9.17096,1.0581461,101.0
5.600784,8.59092,1.3583432,55.0
6.0492835,8.591347,1.3420316,48.0
7.222617,9.199014,1.0389634,103.0
7.7420416,9.161502,0.97674495,91.0
6.8155065,8.937125,1.3817899,69.0
7.311922,8.91195,1.3392712,40.0
5.2292027,9.216428,0.42659265,116.0
5.32197,8.643741,0.34588104,91.0
5.2088313,9.486988,0.8091778,92.0
5.2424173,8.797355,0.705989,85.0
5.781241,8.639062,0.30923733,109.0
6.6861453,9.260333,0.28015932,58.0
5.62665,8.678979,0.6565779,153.0
6.055153,8.64539,0.6073334,158.0
7.267485,9.289423,0.23677956,1.0
7.793964,9.273428,0.16482769,92.0
7.007183,9.23282,0.6185403,84.0
7.5719614,9.271419,0.5750808,78.0
5.223238,9.280822,-0.2959017,98.0
5.053824,9.932606,1.9079956,1.0
5.2678056,8.617965,-0.34754315,94.0
5.103237,8.857672,1.6938804,43.0
5.2040677,9.528219,0.061336964,113.0
5.238635,8.847649,-0.0069931936,78.0
5.069202,9.256349,2.3011026,62.0
5.71605,8.589244,-0.39328617,44.0
5.627227,8.567649,1.6249895,51.0
6.255262,8.721827,-0.47298214,98.0
6.5695496,8.925239,1.6585442,63.0
5.5692997,8.62991,-0.04566409,100.0
5.4230714,8.634396,2.1464572,49.0
6.0029864,8.626726,-0.11372757,94.0
6.086505,8.64478,2.1316972,48.0
5.165568,9.20043,1.1488944,67.0
5.2462244,8.6646185,1.0402945,78.0
7.0016747,9.2456,-0.17640929,48.0
7.1562753,8.949122,2.2037933,52.0
7.542262,9.248445,-0.23286629,44.0
8.022013,8.987176,2.2078538,1.0
5.770129,8.695451,1.0349649,100.0
6.5649443,9.167376,1.0522643,100.0
5.525354,8.5926075,1.352563,51.0
5.9555244,8.572338,1.3322601,60.0
7.1221056,9.189089,1.0319513,138.0
7.6510878,9.170265,0.9719311,98.0
6.73306,8.944888,1.3758897,67.0
7.2119856,8.903841,1.3303676,32.0
5.229469,9.353806,0.43297774,113.0
5.2561135,8.658247,0.3448335,79.0
5.2020183,9.617765,0.8189461,119.0
5.237688,8.915952,0.71420556,72.0
5.7169685,8.660189,0.30846366,93.0
6.2836776,8.820959,0.2585036,151.0
5.552731,8.683882,0.6538196,157.0
5.995026,8.67507,0.60662884,67.0
7.1724024,9.287375,0.2348744,1.0
7.6856494,9.262292,0.16287911,57.0
6.920385,9.238278,0.61541337,85.0
7.4871874,9.286218,0.572583,72.0
5.219913,9.413247,-0.29759327,98.0
5.0555005,10.092881,1.9330598,1.0
5.2570477,8.722735,-0.34928647,86.0
5.0992694,8.980347,1.7115465,45.0
5.1969714,9.659441,0.06339166,92.0
5.2304797,8.961473,-0.0057969354,78.0
5.057468,9.3738575,2.3227093,49.0
5.6521244,8.609927,-0.39284074,63.0
5.555091,8.574632,1.6195576,36.0
6.0903373,8.606152,-0.4670535,98.0
6.492373,8.937586,1.6531093,48.0
5.4967685,8.636015,-0.045969248,40.0
5.335866,8.615027,2.1330717,53.0
5.9248257,8.629695,-0.11382395,95.0
6.008528,8.649106,2.123268,56.0
5.1509666,9.276795,1.1561633,66.0
5.2524543,8.767543,1.0509319,79.0
6.928101,9.238438,-0.17624304,69.0
7.0872736,8.948846,2.195359,69.0
7.4582987,9.234165,-0.23235674,57.0
7.9404254,8.980754,2.1968758,1.0
5.706244,8.687616,1.0302709,99.0
6.302544,8.89033,1.0123525,86.0
