x,y,z,intensity
10.823125,0.7376578,1.1240063,77.0
9.322477,-0.58161134,1.7901336,113.0
10.835315,0.2911001,1.0803406,81.0
11.1279955,-0.09770603,1.0367198,1.0
11.30247,0.4681703,1.5126727,1.0
11.980646,0.062811606,1.5497437,53.0
12.255444,-0.57112294,1.0966629,1.0
11.138331,-0.3626176,1.3689166,27.0
9.578522,0.92810786,2.622275,1.0
9.060234,0.30933517,2.394602,1.0
8.880848,-0.17848636,2.2633584,111.0
9.02222,-0.716376,2.2178116,172.0
9.976651,0.37903655,1.5818532,1.0
10.974317,-0.16822174,1.6422398,1.0
9.001651,0.5237346,1.8942245,84.0
9.083263,0.055060305,1.8266398,102.0
9.314187,-0.5223915,1.7878335,90.0
10.843203,0.35952213,1.0814582,77.0
11.100545,-0.027664889,1.0337789,1.0
11.228148,0.5356524,1.5022684,1.0
12.029523,0.13857308,1.5567231,41.0
11.733838,-0.47382152,1.0437716,1.0
11.108688,-0.2918519,1.3646256,1.0
10.628623,-0.6562374,1.2265779,1.0
9.5801735,0.9890485,2.6244044,1.0
9.01758,0.36452585,2.3837306,1.0
8.87405,-0.1225585,2.2613547,89.0
9.007183,-0.6583029,2.2129817,125.0
9.976045,0.44180515,1.5821728,1.0
11.091797,-0.10053634,1.6600538,1.0
9.019649,0.5817159,1.8988258,88.0
9.086657,0.11217027,1.8274425,95.0
9.285914,-0.46236557,1.7816994,107.0
10.852645,0.42813683,1.0827993,70.0
11.096521,0.042074185,1.0333587,1.0
11.295695,0.6101606,1.5126727,1.0
12.176927,0.21654654,1.5776619,1.0
11.800228,-0.402146,1.0501827,1.0
11.407545,-0.22744505,1.4048544,1.0
9.017041,0.42127192,2.3842485,1.0
8.861092,-0.06666607,2.2578483,121.0
8.968532,-0.5989477,2.2023556,137.0
11.724868,-0.0337622,1.7566723,1.0
9.035321,0.63980144,1.9030087,81.0
9.0740185,0.16906817,1.8250343,98.0
9.270986,-0.40328264,1.778249,104.0
10.867607,0.49716794,1.0848111,75.0
11.096038,0.1117944,1.0333587,1.0
12.1962805,0.7373224,1.6450377,1.0
12.054551,0.29034647,1.5606318,28.0
11.685156,-0.3249362,1.0383624,1.0
12.952568,-0.17409095,1.6137766,1.0
9.106804,0.48303702,2.4090972,1.0
8.871017,-0.011023463,2.2603528,156.0
8.95468,-0.54157037,2.1980088,135.0
11.904762,0.04020778,1.7841481,1.0
9.025273,0.6960947,1.9017538,38.0
9.074736,0.22612262,1.8254356,103.0
9.267451,-0.3448177,1.7770989,105.0
10.882131,0.566404,1.0868229,69.0
11.101083,0.18159686,1.033989,1.0
12.24669,0.8177221,1.6531298,1.0
11.862447,0.3606297,1.5338302,31.0
11.62728,-0.25032967,1.032352,1.0
12.521351,-0.09029093,1.5553105,1.0
8.837499,0.5238603,2.337657,1.0
8.868975,0.04470931,2.259852,132.0
8.924957,-0.483586,2.1897979,141.0
9.082928,0.28341964,1.8274425,105.0
9.257662,-0.28624403,1.7747988,100.0
9.676326,-0.8171976,1.7731297,1.0
10.918035,0.6371563,1.0912933,49.0
11.133527,0.2520465,1.03756,1.0
11.367048,0.82930183,1.5251,7.0
11.47796,0.42179593,1.4799479,88.0
11.57689,-0.17657071,1.027143,1.0
12.3254595,-0.011752374,1.5287595,1.0
11.371241,-0.416988,1.3201922,1.0
8.93233,0.58605087,2.3640587,84.0
8.864647,0.1003985,2.25885,147.0
8.898738,-0.42617345,2.182553,144.0
9.142404,0.8211038,1.928943,1.0
9.094675,0.34096658,1.8302523,93.0
9.249466,-0.22785103,1.7728819,97.0
9.565633,-0.74710554,1.7515398,1.0
10.905883,0.7052156,1.0903993,108.0
11.105877,0.32129467,1.0348291,1.0
11.203996,0.48271817,1.4416999,47.0
11.559861,-0.10369882,1.0253398,1.0
11.111916,-0.33711326,1.2866131,1.0
8.947738,0.64359206,2.3692358,81.0
8.856096,0.15597577,2.2568464,149.0
8.887665,-0.36971936,2.179172,143.0
11.769454,0.26186904,1.7639186,1.0
9.127333,0.8775732,1.9268516,1.0
9.092353,0.398103,1.8302523,114.0
9.230811,-0.18391381,1.7690481,96.0
9.531795,-0.6992081,1.7445872,1.0
11.122131,0.37419534,1.0367198,1.0
10.381221,0.8704767,1.3820417,1.0
11.173901,0.5342365,1.4377912,85.0
11.536343,-0.04916364,1.0229357,1.0
12.281244,0.12326132,1.5228592,1.0
11.103466,-0.28447384,1.2853413,1.0
8.9889,0.6892469,2.3811424,45.0
8.853328,0.19766848,2.2563455,133.0
8.87961,-0.3274978,2.176757,141.0
9.31011,-0.8465455,2.1902878,1.0
11.321411,0.3060557,1.6956818,1.0
9.220367,0.93060815,1.9477664,1.0
9.125606,0.44257513,1.8374773,100.0
9.243561,-0.12604634,1.7713484,90.0
9.534039,-0.6391689,1.7442212,46.0
11.137448,0.4447515,1.0386103,1.0
11.3087635,0.6116718,1.457334,81.0
11.508565,0.023216397,1.0201309,1.0
12.294099,0.20067307,1.5247365,1.0
11.380714,-0.22053854,1.3207009,1.0
8.978617,0.74521947,2.3795893,76.0
8.8615885,0.253546,2.25885,124.0
8.867912,-0.27131516,2.173376,138.0
9.11947,-0.77104115,2.143522,1.0
10.001439,0.8691025,1.5907999,1.0
11.212556,0.37381974,1.6793774,80.0
9.330988,1.0012959,1.9728642,1.0
9.122644,0.4999039,1.8374773,100.0
9.224542,-0.0678641,1.7675146,101.0
9.522167,-0.5782656,1.7412938,30.0
11.160264,0.51586777,1.0413411,1.0
12.22006,0.7363454,1.5865958,59.0
11.514161,0.09558601,1.0207319,1.0
12.288632,0.27781856,1.5242002,43.0
12.9726715,-0.17269938,1.5247189,1.0
9.004539,0.80443835,2.3878722,37.0
8.85982,0.30921963,2.25885,145.0
8.867501,-0.21554871,2.172893,136.0
9.065952,-0.70904565,2.1296313,32.0
9.993815,0.93173856,1.5904804,1.0
11.182326,0.4432165,1.6751504,71.0
9.138883,0.55836433,1.8414912,101.0
9.216934,-0.009912519,1.7659811,96.0
9.502055,-0.5170926,1.7369027,50.0
11.210435,0.58869815,1.0470128,1.0
11.503739,0.76694,1.48609,29.0
11.501395,0.16773404,1.0195298,1.0
11.900347,0.34322247,1.4719026,21.0
13.1044235,-0.09231228,1.5415084,1.0
9.06083,0.86702526,2.404438,23.0
8.873181,0.3654831,2.2628574,151.0
8.855097,-0.15961502,2.169512,137.0
9.060526,-0.65134966,2.127316,51.0
11.187222,0.5138164,1.6763581,96.0
9.164521,0.6176856,1.8475121,113.0
9.216814,0.047999,1.7659811,92.0
9.477624,-0.45599777,1.7317797,67.0
11.250201,0.66161335,1.0516342,1.0
10.801371,0.7895487,1.3875384,1.0
11.504093,0.24008572,1.0199306,1.0
11.88013,0.41733056,1.4694889,12.0
8.882316,0.42175183,2.265863,151.0
8.855925,-0.10397402,2.169512,88.0
9.021733,-0.59151167,2.1171293,74.0
11.181798,0.58399767,1.6760563,86.0
9.168277,0.67581433,1.8491178,91.0
9.198667,0.105666645,1.7625308,85.0
9.450837,-0.39514405,1.7262907,45.0
11.293461,0.7353026,1.0566757,1.0
10.417094,0.82800883,1.3339353,1.0
11.532194,0.3132259,1.0229357,1.0
11.261464,0.46540406,1.386081,1.0
8.887225,0.4779506,2.2678666,155.0
8.819529,-0.04821237,2.1603353,88.0
9.015562,-0.53421783,2.1148143,39.0
11.17396,0.6540191,1.6754524,70.0
9.177524,0.7344705,1.8519274,115.0
9.211804,0.14926596,1.7652143,91.0
9.440805,-0.3501412,1.7240951,67.0
11.534568,0.36770022,1.0233364,1.0
12.76325,-0.05362162,1.0482122,1.0
11.243308,0.51770914,1.3839355,1.0
8.911939,0.5213466,2.2748795,157.0
8.844888,-0.0066117872,2.166614,123.0
8.996612,-0.49051383,2.109721,67.0
11.194434,0.70812255,1.6790756,82.0
9.200873,0.20689978,1.7632976,85.0
9.425133,-0.29023352,1.7208017,69.0
11.565832,0.44151616,1.0267423,1.0
12.75736,0.026569858,1.0476568,1.0
11.297226,0.5914504,1.391713,1.0
12.218305,0.20320998,1.4280521,1.0
8.91815,0.5779354,2.277384,155.0
8.852518,0.049022872,2.1685462,70.0
8.978141,-0.432898,2.1046276,71.0
11.24894,0.7824538,1.6881335,40.0
9.198167,0.8379381,1.8579483,161.0
9.207239,0.26494926,1.7648311,85.0
9.407115,-0.23048423,1.7171425,76.0
11.62644,0.51711786,1.0331534,1.0
12.764908,0.106779605,1.0483974,1.0
12.278492,0.7219867,1.525273,27.0
13.158858,0.29999635,1.5488857,1.0
8.935591,0.63542056,2.2828944,129.0
8.809341,0.10404075,2.1579201,168.0
12.150774,0.92028797,1.8270226,26.0
9.201469,0.32264823,1.7640643,79.0
9.418206,-0.17157371,1.7189721,78.0
11.70841,0.5946467,1.0417682,1.0
12.718186,0.18638332,1.0441389,1.0
12.297443,0.8007045,1.5284913,86.0
13.130935,0.3819595,1.5455786,55.0
8.9430065,0.69242215,2.2858999,82.0
8.8317995,0.15986417,2.163716,76.0
8.912878,-0.3173918,2.0879586,1.0
10.193738,0.8397898,1.5281092,1.0
9.338955,0.9688978,1.8892568,111.0
9.220833,0.38139588,1.7682813,87.0
9.419099,-0.11239438,1.7189721,79.0
11.668686,0.666097,1.038162,1.0
12.690881,0.26578924,1.0417321,1.0
13.152067,0.46526033,1.5486313,111.0
9.050411,0.7577175,2.314953,68.0
8.818979,0.21504179,2.160818,85.0
8.930254,-0.2618763,2.091663,1.0
10.152805,0.9007477,1.5226744,16.0
9.513847,1.0471063,1.9265863,83.0
9.222854,0.425033,1.7690481,81.0
9.397896,-0.067803994,1.7149469,81.0
12.197648,0.7549054,1.0918546,1.0
12.7711115,0.3275539,1.0493231,1.0
8.823688,0.25678048,2.1622672,115.0
9.026691,-0.22235315,2.1143513,1.0
10.345334,0.9665884,1.5528677,57.0
9.231761,0.48361513,1.7713484,77.0
9.404036,-0.008772578,1.7160447,79.0
12.830506,0.4096625,1.0550628,1.0
11.257535,0.5251564,1.3062009,35.0
8.941277,0.84790576,2.2889054,91.0
8.827719,0.31243524,2.163716,150.0
8.981225,-0.16467102,2.1032386,1.0
10.21706,1.0196395,1.5341479,158.0
9.252052,0.5430418,1.7759489,82.0
9.392107,0.050276898,1.7138491,83.0
12.857531,0.49136385,1.05784,1.0
12.204973,0.64450943,1.4283065,45.0
9.124604,0.92274135,2.3379955,73.0
8.856604,0.36925966,2.1714442,91.0
8.9529,-0.1078197,2.0962932,1.0
10.397264,1.1032702,1.5628315,124.0
9.250416,0.6012947,1.7763323,82.0
9.383741,0.10921338,1.7123854,82.0
13.114824,0.58332795,1.0820944,1.0
12.246234,0.7237988,1.4341574,31.0
9.428651,1.0126799,2.4186437,34.0
8.846355,0.42450976,2.169512,111.0
8.887251,-0.05103396,2.0805502,1.0
10.425499,1.1724845,1.5682663,66.0
9.285607,0.662283,1.7839997,84.0
9.388768,0.16826355,1.7134832,87.0
8.860953,0.4810712,2.1738591,103.0
8.887396,0.004806924,2.0805502,1.0
9.281263,0.72061276,1.7839997,85.0
9.3835945,0.22716455,1.7127513,80.0
8.871314,0.53758913,2.1772401,100.0
8.8618965,0.060532894,2.0745308,1.0
9.290242,0.78009367,1.7866833,77.0
9.385912,0.2862299,1.7134832,83.0
10.588679,0.82910544,1.2230165,1.0
8.892932,0.5950602,2.183519,102.0
8.890525,0.11652801,2.0814762,19.0
9.298192,0.8249304,1.7889835,80.0
9.402146,0.33104107,1.7167765,86.0
8.8939,0.63724667,2.184485,103.0
9.343621,0.88827616,1.7989513,75.0
9.405774,0.39034143,1.7178743,87.0
8.912935,0.6949791,2.190281,103.0
8.884815,0.21419054,2.0805502,25.0
9.415954,0.955057,1.8142861,54.0
9.403136,0.44943157,1.7178743,91.0
8.943197,0.7539803,2.1989748,103.0
8.974705,0.27257997,2.1023126,1.0
9.679027,1.0438067,1.8671917,26.0
9.421726,0.5096256,1.7218995,77.0
8.95954,0.8121321,2.2042878,98.0
8.984482,0.32936522,2.1050906,1.0
9.420301,0.5689279,1.7222655,93.0
9.004475,0.87339467,2.2168455,96.0
8.921969,0.38335752,2.0907369,1.0
9.428313,0.6288656,1.7244611,78.0
9.074082,0.93790376,2.2356825,56.0
8.909667,0.43895143,2.0884216,1.0
9.462515,0.67587,1.7314137,97.0
9.304911,1.006632,2.2946076,47.0
8.928873,0.48203737,2.093515,1.0
9.465924,0.7359038,1.7328775,79.0
8.859627,0.5342983,2.0777721,1.0
9.472871,0.7963281,1.735073,93.0
8.974536,0.59757155,2.1060166,125.0
9.48335,0.85721445,1.7380004,76.0
8.970604,0.653948,2.1060166,64.0
9.573694,0.92585415,1.755931,66.0
8.993477,0.7123884,2.1124992,83.0
8.998518,0.7696889,2.1148143,83.0
9.019987,0.8143024,2.1208336,82.0
9.037937,0.87315327,2.12639,82.0
9.115516,0.9383046,2.1463,48.0
9.310639,1.0170972,2.1944551,43.0
9.211316,-0.8634359,2.0665157,1.0
9.216559,-0.8055429,2.0665157,124.0
9.153388,-0.7422514,2.0510144,88.0
9.15398,-0.68444246,2.0501287,69.0
9.138639,-0.6256243,2.0456998,53.0
9.150178,-0.5686592,2.0474713,66.0
10.065009,-0.8177527,1.7256783,1.0
9.133282,-0.52445906,2.0430424,34.0
9.802696,-0.73501384,1.6789832,1.0
9.105228,-0.46553907,2.0359561,1.0
9.765836,-0.6706585,1.6717728,55.0
8.922859,-0.40043527,1.9938817,1.0
9.760023,-0.6086924,1.6700561,66.0
8.90181,-0.34351465,1.988567,1.0
9.499558,-0.87795186,2.0768242,1.0
9.720371,-0.5450205,1.6625025,50.0
8.962276,-0.2893318,2.0018537,1.0
9.209217,-0.7921589,2.0111394,67.0
9.705892,-0.48309082,1.6594124,62.0
8.948319,-0.23264475,1.9983106,1.0
9.24126,-0.7365122,2.0171895,151.0
9.706092,-0.43726313,1.6590691,66.0
8.964916,-0.19077092,2.0018537,28.0
9.225158,-0.6914534,2.0128682,239.0
9.667298,-0.3747539,1.6518588,45.0
8.967888,-0.13446411,2.0022967,55.0
9.233216,-0.63375276,2.0137324,57.0
9.657646,-0.3136466,1.6497986,56.0
8.966605,-0.078102365,2.0018537,41.0
9.112299,-0.56767803,1.9860756,195.0
9.679124,-0.2534344,1.6532321,65.0
9.981249,-0.77878624,1.6582147,1.0
9.000075,-0.021767616,2.009383,71.0
9.647035,-0.19201808,1.6473953,47.0
9.860077,-0.70677465,1.636882,1.0
8.927873,0.03433963,1.992996,92.0
9.653961,-0.13146862,1.6484253,61.0
9.840713,-0.64321625,1.632882,53.0
8.746113,0.08818361,1.9518071,178.0
10.750853,-0.6029009,1.1753049,1.0
9.646593,-0.08592053,1.6470519,46.0
9.827889,-0.59584874,1.6302154,30.0
10.694939,-0.5324912,1.168036,62.0
8.9836855,-0.48609668,2.44928,1.0
9.63512,-0.025301812,1.6449919,60.0
9.807812,-0.5327545,1.6262156,43.0
8.984441,0.1899586,2.0062826,85.0
9.324881,-0.8659234,1.9686812,46.0
10.678238,-0.4644579,1.1656129,47.0
8.938426,-0.42723086,2.4359727,1.0
9.64297,0.035282996,1.6463652,45.0
9.777483,-0.46944275,1.6205491,22.0
8.975272,0.24617383,2.004511,86.0
9.283365,-0.8033719,1.9586421,70.0
10.665073,-0.3967956,1.1636746,53.0
8.937081,-0.37089238,2.4349082,1.0
9.628767,0.09570426,1.6439618,57.0
9.752658,-0.4067921,1.6158825,20.0
8.959905,0.30207092,2.001411,49.0
10.699107,-0.33069858,1.1675514,82.0
8.946941,-0.31502095,2.4370372,28.0
9.633885,0.15630966,1.6449919,46.0
9.743197,-0.34506327,1.6138825,9.0
8.967573,0.35877326,2.0036254,45.0
8.996212,-0.665394,1.8950611,46.0
10.726775,-0.26405424,1.1707011,45.0
8.929475,-0.2581987,2.4317143,63.0
9.616956,0.21644968,1.642245,26.0
9.719549,-0.28303874,1.6095493,17.0
8.95735,0.41473222,2.0018537,10.0
10.712021,-0.21321683,1.1687628,52.0
10.819173,-0.5728517,1.1223875,1.0
8.926738,-0.21601479,2.4306498,76.0
9.458702,-0.82233214,2.5095274,1.0
9.605982,0.26147705,1.6405283,44.0
9.726689,-0.23739016,1.6105493,8.0
8.966981,0.4575608,2.004511,16.0
10.323389,-0.85781074,1.6425637,1.0
10.713149,-0.14590745,1.1687628,42.0
8.920209,-0.15976688,2.4285207,64.0
9.078498,-0.7326654,2.405991,1.0
9.629746,0.32273963,1.6449919,12.0
9.714188,-0.17599234,1.608216,8.0
8.90747,0.5105275,1.9916673,1.0
10.0647545,-0.7731977,1.5997468,1.0
9.033706,-0.51134497,1.9009173,1.0
10.684075,-0.0784304,1.1651284,1.0
10.754064,-0.43383458,1.1140625,1.0
10.49292,-0.7053726,1.396492,1.0
8.922965,-0.10374357,2.4290528,87.0
13.137511,0.1164429,1.0118705,1.0
8.886385,-0.6614318,2.3531876,46.0
9.623591,0.3830733,1.6443051,44.0
9.71313,-0.11492577,1.6078827,8.0
8.923547,0.567767,1.9960961,1.0
8.897134,0.0898393,1.9346515,1.0
10.002444,-0.705358,1.5888828,1.0
9.06409,-0.45588893,1.9067733,160.0
10.778416,-0.3670416,1.1166062,1.0
8.898379,-0.047486227,2.422133,87.0
9.006025,-0.6131975,2.3842485,89.0
9.626899,0.44381684,1.6453352,12.0
9.701828,-0.053804092,1.6058828,9.0
9.055973,0.6336583,2.0270984,1.0
9.979092,-0.64078224,1.5844094,1.0
9.033556,-0.39754194,1.8996624,93.0
10.7308655,-0.29784,1.1108251,26.0
11.406087,-0.6211366,1.528857,13.0
8.904285,0.0084167635,2.42373,93.0
8.990417,-0.5554515,2.3790717,80.0
9.647529,0.50558233,1.6494553,43.0
9.709863,0.0071442337,1.6072161,9.0
9.127643,0.6965016,2.0443711,1.0
10.016432,-0.57994163,1.5898414,1.0
9.012421,-0.33994323,1.8946428,114.0
9.522915,-0.85812503,1.9245793,1.0
10.730539,-0.23036416,1.1105938,70.0
11.176492,-0.53864086,1.4947543,1.0
8.884778,0.06426819,2.418407,85.0
8.968651,-0.497618,2.3723419,139.0
9.6539955,0.56678724,1.651172,11.0
9.685963,0.06803603,1.6032162,21.0
9.070616,0.7493851,2.0324132,1.0
8.90362,0.2577807,1.9368122,1.0
9.994243,-0.51572496,1.5856875,1.0
9.002649,-0.282968,1.892133,84.0
9.329002,-0.78116554,1.8836373,1.0
10.719588,-0.17957306,1.1092063,77.0
11.147269,-0.48464942,1.4901302,1.0
8.894015,0.10622893,2.4210684,91.0
8.930375,-0.45338404,2.3614705,71.0
9.688573,0.6147229,1.6576957,44.0
9.711169,0.11392617,1.6075494,24.0
9.12526,0.79734343,2.0456998,30.0
8.9120655,0.3000413,1.9389728,1.0
9.99459,-0.46853417,1.585368,1.0
8.982376,-0.24001507,1.8875318,135.0
9.289617,-0.7337075,1.8748068,1.0
10.696668,-0.11192205,1.1064314,50.0
10.836662,-0.5605199,1.0816817,1.0
11.122406,-0.41362092,1.4860841,1.0
8.893172,0.16210921,2.4210684,92.0
8.892514,-0.3955541,2.350599,114.0
9.686484,0.6757267,1.658039,41.0
9.700403,0.17478363,1.6058828,54.0
9.048238,0.84777045,2.0293128,18.0
8.910004,0.35603115,1.9389728,1.0
10.009173,-0.40618378,1.5872852,1.0
10.380176,-0.97620785,1.5583025,1.0
8.975884,-0.18343066,1.8858585,80.0
9.172905,-0.666257,1.8499205,45.0
10.691843,0.3079,1.1665821,1.0
10.711065,-0.0447957,1.1080501,60.0
10.905495,-0.495274,1.089058,62.0
11.1010475,-0.34303904,1.482616,1.0
10.43457,-0.69771904,1.335052,1.0
8.884269,0.21781173,2.4189394,95.0
10.327105,-0.9598715,2.6485665,4.0
9.705619,0.73841786,1.6621592,42.0
9.703056,0.23581678,1.6065494,50.0
8.911493,0.41217852,1.9398371,1.0
9.991796,-0.34265015,1.5840899,1.0
10.336875,-0.90655375,1.5507542,76.0
8.961215,-0.12684432,1.8825122,132.0
10.715488,0.37602633,1.169732,1.0
10.709149,0.02250395,1.1078188,53.0
10.886544,-0.42592952,1.0865992,109.0
11.110897,-0.2734631,1.483772,1.0
8.8962145,0.27401322,2.4226654,87.0
9.0184355,-0.2873813,2.383213,81.0
9.166068,-0.79159456,2.3455093,1.0
9.736128,0.80237156,1.6683394,38.0
9.71321,0.29711482,1.6085494,67.0
9.203619,0.97952133,2.0674014,33.0
8.92628,0.46904486,1.9437263,1.0
9.98783,-0.27970976,1.5831313,1.0
10.354189,-0.84257305,1.5525658,59.0
8.95988,-0.07052625,1.8820939,76.0
9.178597,-0.55081564,1.8495191,63.0
10.732748,0.4442044,1.172155,1.0
10.7366085,0.089971006,1.1110563,149.0
10.861195,-0.35665825,1.08347,76.0
11.270696,-0.20625755,1.5068926,1.0
11.330321,-0.6164412,1.4604051,1.0
8.915511,0.33064163,2.4285207,87.0
9.062796,-0.7250978,2.317458,138.0
9.760327,0.86620295,1.6734896,19.0
9.713122,0.35820702,1.6088827,51.0
9.2999735,1.0491405,2.0908747,36.0
8.944603,0.5263338,1.9484798,1.0
9.96373,-0.2164442,1.5789775,1.0
8.952323,-0.01423398,1.8804207,123.0
9.158402,-0.49182144,1.8447024,76.0
10.713882,0.5108445,1.1702166,24.0
10.831431,-0.2876243,1.0798935,95.0
11.604225,-0.13883287,1.5554457,1.0
11.996586,-0.57830566,1.5539314,1.0
8.913258,0.38665253,2.4285207,86.0
8.909305,-0.17212397,2.3531876,1.0
9.758615,0.9278925,1.6741763,7.0
9.714622,0.41939077,1.6095493,71.0
9.974763,-0.15396862,1.5805751,1.0
8.958102,0.042055897,1.8816756,73.0
9.120217,-0.43222883,1.8362732,53.0
10.735145,0.5626185,1.1731242,35.0
10.711134,0.20760165,1.1082814,62.0
10.828692,-0.23650004,1.0794464,79.0
11.962946,-0.08611746,1.6077558,1.0
11.397744,-0.49459398,1.4690597,1.0
8.917114,0.42891553,2.4301174,77.0
8.902289,-0.13004288,2.351117,1.0
8.9485445,-0.6167421,2.2858999,136.0
9.734206,0.4661574,1.6132159,77.0
9.029845,0.6308416,1.9687902,1.0
9.95761,-0.10680782,1.5776993,1.0
8.938249,0.08404096,1.8774927,115.0
9.114324,-0.38889462,1.8346676,85.0
10.628352,0.62381226,1.1605247,21.0
10.697702,0.27461392,1.1068939,72.0
10.812078,-0.16821253,1.0774348,95.0
12.062201,-0.010873207,1.6222061,18.0
11.380838,-0.422201,1.466268,1.0
8.945047,0.48653993,2.4386342,61.0
8.902931,-0.074105956,2.351117,1.0
8.917463,-0.55824816,2.2768831,113.0
9.742902,0.5279252,1.6152159,80.0
9.089969,0.69231546,1.9830507,1.0
9.969931,-0.04426905,1.5796164,1.0
10.797457,-0.62383056,1.6177832,1.0
8.953188,0.14048061,1.880839,88.0
9.118545,-0.3316959,1.8350691,90.0
10.651955,0.6924352,1.163917,25.0
10.70768,0.3421818,1.1082814,81.0
10.797023,-0.10015783,1.0756465,78.0
11.276146,-0.5070242,1.0535247,1.0
11.947251,0.06410429,1.6054437,1.0
8.951436,0.5432955,2.4412956,52.0
8.924471,-0.018160908,2.3568113,1.0
8.909198,-0.501528,2.2738776,110.0
9.745298,0.58947575,1.6162158,81.0
9.149674,0.75456953,1.9973111,120.0
9.952243,0.018305337,1.5767407,1.0
10.720218,-0.5516571,1.605404,1.0
8.930621,0.19621049,1.8762378,104.0
9.075408,-0.27294067,1.825837,86.0
10.631555,0.7581893,1.1619785,44.0
10.721201,0.41003022,1.1101314,85.0
10.789489,-0.032307778,1.0747524,92.0
11.201604,-0.43302757,1.0453323,1.0
12.039618,0.14041111,1.619027,1.0
11.264481,-0.2759788,1.4492378,1.0
10.6477585,-0.66604096,1.3045504,1.0
8.910887,0.03782492,2.3531876,1.0
8.8909025,-0.44442844,2.2683675,118.0
9.757146,0.65171385,1.6188824,90.0
9.224517,0.81894827,2.0150287,106.0
9.947983,0.08079621,1.5761017,1.0
8.940941,0.25267714,1.8787476,100.0
9.076944,-0.21591319,1.825837,92.0
10.710474,0.47704643,1.1092063,77.0
9.314012,-0.8017416,1.7916671,1.0
10.783517,0.035453923,1.0740819,73.0
11.182238,-0.3618903,1.0430217,1.0
12.1216,0.21768686,1.6311654,1.0
11.376874,-0.20741677,1.464872,1.0
9.0535145,0.6635232,2.4716363,1.0
8.90661,0.09376306,2.352152,1.0
8.889651,-0.38837898,2.2673657,93.0
9.756792,0.7132859,1.619549,85.0
9.308631,0.88520026,2.0349069,229.0
9.945305,0.14326675,1.5757821,1.0
8.9372225,0.30877742,1.8783293,96.0
9.058532,-0.15849045,1.8218231,88.0
10.729092,0.54540056,1.1117501,70.0
9.338435,-0.7447225,1.7955009,136.0
10.793018,0.10332146,1.0751995,82.0
11.150492,-0.29068077,1.0394505,1.0
12.003271,0.2908185,1.6141139,1.0
12.579953,-0.15243901,1.634336,1.0
12.318196,-0.61206603,1.5298322,13.0
9.081843,0.7229223,2.4806852,1.0
8.907776,0.1497596,2.35267,1.0
8.868699,-0.331595,2.2613547,126.0
9.775712,0.7763998,1.623549,95.0
9.944209,0.2057517,1.5757821,1.0
8.956599,0.36585197,1.8829305,87.0
9.067185,-0.10167672,1.8234286,89.0
10.767108,0.61510307,1.1166062,69.0
9.321393,-0.6844986,1.7912837,108.0
10.79613,0.17120402,1.0756465,80.0
11.112329,-0.2197556,1.0352494,1.0
11.854836,0.36151618,1.5927274,1.0
12.034082,-0.069322005,1.5572815,1.0
12.121798,-0.5263091,1.5027448,1.0
9.613123,0.8248224,2.629195,1.0
8.906659,0.20572549,2.35267,1.0
8.849321,-0.27515432,2.2558446,99.0
9.19166,-0.83122474,2.262247,1.0
9.790292,0.8394507,1.6268822,79.0
9.22492,0.9945161,2.018918,103.0
9.942719,0.26822853,1.5757821,1.0
8.948264,0.42183077,1.8816756,97.0
9.048053,-0.044563737,1.8194147,100.0
9.308846,-0.63952297,1.7882168,93.0
10.793217,0.22203287,1.075423,76.0
11.095343,-0.16708541,1.0333587,1.0
11.50691,0.40459552,1.5421513,1.0
12.125374,-0.012861603,1.5701239,42.0
11.403212,-0.4424924,1.4051226,1.0
9.541916,0.8641705,2.6105647,1.0
8.940349,0.24874084,2.361988,1.0
8.852455,-0.23350547,2.2563455,135.0
9.06009,-0.77660114,2.2284374,138.0
9.813729,0.8880082,1.6315488,93.0
9.355999,1.0529704,2.0491674,72.0
9.966996,0.31594485,1.579936,1.0
8.963753,0.46494523,1.8854402,90.0
9.063837,-0.0019640229,1.8226259,94.0
10.7022085,0.72964436,1.1099001,1.0
9.297006,-0.5800779,1.7851498,112.0
10.807502,0.29030067,1.0772113,85.0
11.064353,-0.09703091,1.0299977,1.0
11.343991,0.46996492,1.5187418,1.0
11.958861,0.06273437,1.5466726,51.0
12.245504,-0.5706762,1.0956612,1.0
11.122484,-0.3621306,1.3667711,25.0
9.540136,0.9244704,2.6116292,1.0
8.971429,0.30610368,2.3707888,1.0
8.842133,-0.17761959,2.25334,106.0
8.987389,-0.71368915,2.2091177,150.0
9.952978,0.37808886,1.5780188,1.0
8.976273,0.52220064,1.8887867,81.0
9.055833,0.05495545,1.8210204,100.0
