x,y,z,intensity
-8.503803,-15.173255,1.3844622,165.0
-8.588367,-15.156165,1.987242,1.0
-8.433086,-15.10229,1.9722195,114.0
-8.541763,-15.879743,1.4402813,7.0
-8.304607,-15.094061,1.9637392,153.0
-8.5618925,-16.160343,1.4627833,1.0
-7.9074397,-15.151612,1.3579483,1.0
-8.057366,-15.09033,1.948959,48.0
-7.8547873,-15.284334,1.3661467,1.0
-7.9630475,-15.084213,1.9429016,133.0
-7.735863,-15.228754,1.357076,1.0
-7.8343086,-15.068735,1.9339366,137.0
-8.5606575,-15.166675,1.8885115,49.0
-7.584906,-15.166512,1.3462611,1.0
-8.362756,-15.288828,1.2984015,28.0
-7.7205205,-15.080528,1.9288484,93.0
-8.400363,-15.103918,1.873018,119.0
-7.461373,-15.156634,1.3406793,1.0
-8.236207,-15.284955,1.2931429,1.0
-7.605112,-15.087941,1.9232756,126.0
-8.283293,-15.116357,1.8676993,82.0
-7.3555956,-15.181687,1.3385861,1.0
-8.081942,-15.227313,1.2829545,1.0
-7.4951973,-15.105177,1.9191564,100.0
-8.157887,-15.112199,1.8602993,120.0
-7.243811,-15.193415,1.3352718,1.0
-7.9398336,-15.189524,1.2747378,1.0
-7.3749375,-15.100209,1.9121299,132.0
-8.034731,-15.11057,1.853362,84.0
-8.587245,-15.205677,2.410905,1.0
-7.139766,-15.22058,1.3335274,1.0
-7.8460674,-15.242654,1.2750665,1.0
-7.294231,-15.115116,1.9094646,102.0
-7.933788,-15.092031,1.845962,94.0
-8.44038,-15.111121,2.3883624,133.0
-7.0554304,-15.226925,1.3309109,175.0
-7.7351937,-15.2031145,1.2680004,1.0
-8.462957,-15.242578,1.2014933,32.0
-7.182128,-15.124761,1.9046186,136.0
-7.809512,-15.085163,1.838562,88.0
-8.660455,-15.212765,1.830044,39.0
-8.317656,-15.113543,2.3799813,86.0
-7.0659213,-15.504958,1.353413,71.0
-7.6055145,-15.183734,1.2617557,1.0
-8.388028,-15.333963,1.2048645,1.0
-7.68835,-15.082638,1.8318559,120.0
-8.501625,-15.1541395,1.8155149,49.0
-8.184882,-15.095871,2.3684208,102.0
-7.041499,-15.712769,1.369112,120.0
-7.4949417,-15.200847,1.2589622,1.0
-8.242432,-15.295023,1.1968962,1.0
-7.002251,-15.237281,1.9077685,153.0
-7.575568,-15.095158,1.8272309,84.0
-8.350593,-15.106306,1.8025504,186.0
-8.057312,-15.085864,2.3583057,103.0
-7.041181,-15.981076,1.3905674,82.0
-7.4062634,-15.261976,1.2602768,1.0
-8.084598,-15.230188,1.1867825,1.0
-6.9952574,-15.478274,1.934179,56.0
-7.455877,-15.092617,1.820756,112.0
-8.243181,-15.135771,1.7996446,121.0
-7.939385,-15.092378,2.3510807,88.0
-7.0259204,-16.222553,1.4094064,108.0
-7.280086,-15.245292,1.2545252,1.0
-7.957403,-15.220563,1.1815723,1.0
-6.9758596,-15.697991,1.9576817,93.0
-7.346096,-15.108811,1.8168248,91.0
-8.118855,-15.132939,1.7927153,123.0
-7.819878,-15.09449,2.3432775,105.0
-8.538881,-15.077959,2.3035371,171.0
-7.0172377,-16.486471,1.4303385,90.0
-7.2002997,-15.32499,1.2576475,1.0
-7.832472,-15.2134905,1.1766688,1.0
-6.9626927,-15.93809,1.9838498,90.0
-7.2338285,-15.11885,1.8121998,115.0
-7.995818,-15.130903,1.7860097,119.0
-7.7024536,-15.099227,2.3360522,95.0
-8.438173,-15.120943,2.301862,116.0
-7.005512,-16.750912,1.4512706,116.0
-7.073685,-15.304829,1.2517315,170.0
-7.69715,-15.184095,1.1699262,1.0
-8.5545635,-15.419276,1.1072954,149.0
-6.9776735,-16.180471,2.011714,85.0
-7.15314,-15.133025,1.809656,96.0
-7.90239,-15.126111,1.780645,124.0
-8.660215,-15.180577,1.7072396,54.0
-7.608105,-15.089383,2.328538,94.0
-8.34285,-15.11722,2.2948825,117.0
-7.018215,-17.00669,1.4723772,87.0
-7.1019025,-15.557276,1.2716156,68.0
-7.621056,-15.211279,1.16916,1.0
-8.378911,-15.272386,1.0922176,143.0
-6.930002,-15.791271,2.8808484,27.0
-7.068834,-15.201076,1.8126622,45.0
-7.779981,-15.122413,1.7739393,126.0
-8.455273,-15.040639,1.6837127,159.0
-7.4929585,-15.096093,2.3218908,95.0
-8.212625,-15.105006,2.2845528,115.0
-7.0037746,-17.279512,1.494007,96.0
-7.0727673,-15.754255,1.2854193,115.0
-7.508613,-15.224862,1.1662486,1.0
-8.260922,-15.284389,1.0889766,116.0
-7.000525,-15.304773,1.8202934,118.0
-7.659724,-15.121324,1.7676805,123.0
-7.3745627,-15.094835,2.3140876,98.0
-8.089443,-15.103969,2.2761774,127.0
-6.9847097,-17.549114,1.515288,88.0
-7.05919,-15.991572,1.3028384,97.0
-7.389352,-15.223274,1.162111,1.0
-8.121504,-15.255035,1.0824945,132.0
-6.982672,-15.522287,1.8424933,68.0
-7.5468674,-15.133559,1.76321,127.0
-7.2667437,-15.114104,2.3097527,100.0
-7.97123,-15.110734,2.2691977,119.0
-6.9769926,-17.85628,1.5400577,95.0
-7.053249,-16.253092,1.3223938,94.0
-7.2815537,-15.244197,1.1599658,1.0
-8.000423,-15.258087,1.0786898,129.0
-6.972834,-15.763781,1.8676993,82.0
-7.4297915,-15.136049,1.7576219,131.0
-8.122141,-15.108049,1.6729995,17.0
-7.1615067,-15.137984,2.3062847,100.0
-7.849592,-15.109588,2.2611015,119.0
-8.606088,-15.178759,2.2220376,49.0
-6.9479012,-18.117504,1.5604665,92.0
-7.0364556,-16.496834,1.3403059,93.0
-7.1813984,-15.280618,1.1591996,1.0
-7.8787093,-15.25845,1.0747442,118.0
-8.597732,-15.733003,2.704137,35.0
-6.928683,-17.568594,2.166057,55.0
-6.9642053,-16.014858,1.8940616,72.0
-7.3181577,-15.148411,1.7533749,137.0
-8.002801,-15.1131115,1.6675378,1.0
-7.0537577,-15.155754,2.3019495,99.0
-7.7291884,-15.109272,2.2532842,124.0
-8.465208,-15.151159,2.2094326,169.0
-7.026918,-16.764885,1.3603542,116.0
-7.0718923,-15.296461,1.1567477,177.0
-7.7554946,-15.254332,1.0705168,129.0
-8.465838,-15.725821,2.6935694,1.0
-6.9391108,-17.841682,2.1975558,66.0
-6.98295,-16.266449,1.9218113,80.0
-7.225343,-15.137862,1.7477868,143.0
-7.9305687,-15.148895,1.6673278,1.0
-7.006992,-15.2428,2.3106196,59.0
-7.6301346,-15.090773,2.2446296,118.0
-8.363109,-15.135335,2.2008505,95.0
-7.041797,-17.024261,1.380567,89.0
-7.1120796,-15.576451,1.1775881,73.0
-7.6601796,-15.244389,1.0668532,125.0
-8.396294,-15.7742605,2.695079,25.0
-6.934184,-18.166964,2.2343848,82.0
-6.9758434,-16.53503,1.9502548,83.0
-7.1267166,-15.175761,1.7468927,150.0
-7.81696,-15.16309,1.6631265,1.0
-6.994828,-15.472363,2.3403873,58.0
-7.517474,-15.102979,2.239046,118.0
-8.515915,-15.128892,1.6093471,128.0
-8.234751,-15.126619,2.1914637,136.0
-6.940825,-19.081457,1.6393108,1.0
-7.02497,-17.289667,1.4002866,99.0
-7.102055,-15.817403,1.1941379,111.0
-7.548286,-15.260049,1.0643166,111.0
-7.1147227,-15.596555,2.740465,88.0
-7.93823,-15.144204,2.5773253,1.0
-6.9240513,-18.489157,2.2707293,75.0
-7.037044,-15.232877,1.7484574,38.0
-7.6782203,-15.126827,1.6530435,1.0
-6.9856653,-15.715035,2.372178,87.0
-7.3997216,-15.103702,2.2317872,122.0
-8.123657,-15.148349,2.1869044,99.0
-7.014712,-17.579582,1.4221426,95.0
-7.087673,-16.055185,1.2103812,85.0
-7.429495,-15.260565,1.0606529,97.0
-7.046407,-15.707636,2.7522876,77.0
-7.8011084,-15.113018,2.5634363,1.0
-6.9080915,-18.806337,2.3063471,78.0
-6.9895716,-15.383607,1.7616453,161.0
-7.549159,-15.107204,1.6450611,1.0
-7.2857065,-15.110674,2.2256453,120.0
-8.29371,-15.177047,1.6027356,23.0
-8.000609,-15.146485,2.1788585,126.0
-7.004729,-17.879314,1.4448203,92.0
-7.0784974,-16.311707,1.2281568,99.0
-7.323094,-15.285366,1.058962,79.0
-7.6691833,-15.089517,2.551057,1.0
-6.9038463,-19.167011,2.3475375,73.0
-6.994655,-15.65598,1.7898096,70.0
-7.436489,-15.118666,1.6408598,1.0
-7.176152,-15.125753,2.220899,121.0
-8.176539,-15.188532,1.5981277,1.0
-7.8760824,-15.140156,2.1702764,77.0
-8.653051,-15.236966,2.1080272,78.0
-6.9754696,-18.138695,1.4638827,90.0
-7.066375,-16.568737,1.2459325,95.0
-7.2388487,-15.356326,1.0609348,90.0
-6.954206,-16.0396,2.795424,66.0
-7.5582595,-15.105599,2.5456223,1.0
-6.9250526,-17.63669,2.0668037,101.0
-6.969485,-15.867116,1.8103739,129.0
-7.3257113,-15.132887,1.6370788,1.0
-7.0776143,-15.163369,2.2197824,81.0
-8.023276,-15.130538,1.5857064,1.0
-7.7528524,-15.134627,2.1619625,157.0
-8.435798,-15.074784,2.0762289,155.0
-7.0528355,-16.82993,1.2640146,88.0
-7.14222,-15.401505,1.0609348,42.0
-7.434302,-15.0942955,2.5356586,1.0
-6.938256,-17.917265,2.097791,78.0
-6.993204,-16.127825,1.8383145,80.0
-7.25862,-15.176207,1.6381291,1.0
-7.0027547,-15.1893635,2.2186656,141.0
-8.034854,-15.326897,1.6037374,1.0
-7.672515,-15.153301,2.1592805,131.0
-8.364666,-15.114369,2.0762289,120.0
-7.066168,-17.0879,1.2827096,96.0
-7.1370316,-15.58183,1.0723487,95.0
-7.3379364,-15.077638,2.5269024,1.0
-6.93311,-18.242657,2.1329405,82.0
-6.9756565,-16.369007,1.8624552,116.0
-7.1368012,-15.165757,1.6316172,1.0
-6.9982033,-15.433159,2.249655,62.0
-7.9748244,-15.44785,1.6117512,1.0
-8.542506,-15.141948,1.4779416,156.0
-7.54981,-15.146189,2.1509666,89.0
-8.247646,-15.126595,2.070378,90.0
-7.035809,-19.280373,1.5537716,1.0
-7.0507154,-17.359308,1.3015579,91.0
-7.10964,-15.782716,1.0844673,115.0
-7.224221,-15.08424,2.52026,1.0
-6.9144015,-18.542631,2.1648529,74.0
-7.007862,-15.138144,1.6232146,183.0
-6.972261,-15.63591,2.274223,111.0
-7.845219,-15.433753,1.6045388,30.0
-7.4179187,-15.118551,2.1397026,135.0
-8.131744,-15.139694,2.0647814,121.0
-7.0409694,-17.653423,1.3222451,85.0
-7.0994453,-16.027622,1.0999678,92.0
-7.9646606,-16.329956,1.0479724,1.0
-7.105644,-15.079285,2.5118058,1.0
-6.907932,-18.885977,2.2020836,81.0
-7.0216928,-15.420681,1.6509429,67.0
-6.9613276,-17.645412,2.6308389,33.0
-6.9544096,-15.862504,2.3024204,48.0
-7.696562,-15.379466,1.5929188,1.0
-7.3098855,-15.138074,2.1356795,105.0
-8.023443,-15.165955,2.0612202,253.0
-7.01765,-17.922087,1.3407869,91.0
-7.089645,-16.280329,1.116032,97.0
-7.0032554,-15.107498,2.5090885,1.0
-6.896744,-19.22809,2.2390833,72.0
-7.002905,-15.638666,1.671109,116.0
-7.561179,-15.348931,1.5841036,1.0
-7.2010517,-15.1550455,2.1313884,109.0
-7.9858737,-15.326834,2.0772464,254.0
-7.0054975,-18.228386,1.3623935,91.0
-7.0753713,-16.52987,1.1318144,97.0
-6.9822116,-15.313014,2.5362625,1.0
-6.93045,-17.470634,1.975112,76.0
-6.996117,-15.889766,1.6950561,97.0
-7.338153,-15.134561,1.5548531,1.0
-8.515221,-16.019644,1.548298,1.0
-7.109874,-15.208974,2.1327295,47.0
-7.785035,-15.173856,2.047992,235.0
-7.059014,-16.781704,1.1477376,102.0
-6.9101925,-15.410673,2.5453205,18.0
-6.956366,-17.780844,2.0086408,92.0
-7.0133824,-16.13404,1.7194233,97.0
-7.3044844,-15.247982,1.5636683,1.0
-7.0364676,-15.2387085,2.132193,57.0
-7.6864643,-15.157328,2.0403605,77.0
-7.033306,-18.921368,1.4129622,102.0
-7.081087,-17.05789,1.1663382,102.0
-6.968318,-15.737581,2.5945354,31.0
-6.9453983,-18.087772,2.0403812,100.0
-7.001979,-16.38802,1.7435805,86.0
-7.1179852,-15.100866,1.5422313,1.0
-7.8276386,-15.127766,1.4451704,1.0
-6.98717,-15.385535,2.14748,154.0
-7.553772,-15.130823,2.0296762,142.0
-7.063655,-17.321781,1.1831069,94.0
-6.957916,-15.983981,2.628352,37.0
-6.9322424,-18.398975,2.072569,88.0
-7.007935,-15.112778,1.5386251,177.0
-7.8611083,-15.428458,1.4714614,1.0
-6.990306,-15.653654,2.1807358,57.0
-7.43312,-15.126385,2.022299,88.0
-7.052107,-17.608332,1.2015667,94.0
-6.914072,-18.706987,2.1043096,91.0
-6.9334416,-17.503927,2.5148785,112.0
-7.024845,-15.402879,1.5658721,80.0
-7.5948596,-15.141322,1.4364684,1.0
-6.9728627,-15.882465,2.2080915,108.0
-7.304164,-15.103182,2.012378,121.0
-7.035037,-17.889843,1.2196037,92.0
-6.9031067,-19.045393,2.1396265,85.0
-6.927687,-17.81467,2.55536,71.0
-7.013205,-15.637462,1.5869083,115.0
-7.5013423,-15.192312,1.4368387,1.0
-7.1149335,-16.488539,2.2909632,44.0
-7.2057056,-15.141616,2.0113604,96.0
-7.0312734,-18.214615,1.2408816,81.0
-6.8881574,-19.384388,2.1749434,63.0
-6.9315434,-17.419603,1.8414696,119.0
-7.004496,-15.885252,1.6093471,87.0
-7.3612375,-15.147851,1.4273962,1.0
-7.099463,-15.163249,2.0080533,56.0
-7.0137806,-18.513927,1.2601868,72.0
-6.955032,-17.72042,1.8719288,81.0
-7.01432,-16.113409,1.630784,105.0
-7.315697,-15.2361965,1.4329506,1.0
-7.037113,-15.216331,2.0108516,45.0
-6.93318,-17.99567,1.8981866,91.0
-7.0034943,-16.369492,1.6540241,102.0
-7.1558585,-15.146894,1.4190644,1.0
-6.97431,-15.332435,2.021027,150.0
-6.9370584,-18.347584,1.9330571,63.0
-6.9951077,-16.638914,1.6786666,101.0
-7.061389,-15.193362,1.4192497,1.0
-6.983422,-15.611236,2.0540974,71.0
-6.9097323,-18.627544,1.9597349,100.0
-7.0147667,-15.344227,1.4301734,140.0
-6.9380884,-17.498987,2.4081633,93.0
-6.9604726,-15.825409,2.0780096,97.0
-6.903025,-18.97327,1.9937651,93.0
-7.0254765,-15.625805,1.4544278,73.0
-6.9226336,-17.786137,2.443565,75.0
-6.946156,-16.065382,2.1054833,50.0
-6.900284,-19.342108,2.030316,81.0
-6.961525,-17.476149,1.755399,68.0
-7.007086,-15.849859,1.4727575,103.0
-6.9440975,-17.75686,1.7810432,92.0
-6.993317,-16.090721,1.4927535,91.0
-6.9396005,-17.995562,1.8032815,89.0
-7.0118876,-16.343,1.5149713,93.0
-6.928234,-18.30878,1.8323317,94.0
-7.0060353,-16.615995,1.5381149,90.0
-6.9180365,-18.63562,1.8627841,87.0
-6.9870906,-16.865648,1.5588515,90.0
-6.9265413,-17.426394,2.2657468,61.0
-6.906717,-18.970526,1.8940381,78.0
-6.972808,-17.134148,1.5814396,88.0
-6.908751,-17.70417,2.298054,84.0
-6.9041324,-19.341635,1.9290985,77.0
-6.9583883,-17.410517,1.6047683,90.0
-6.942226,-17.69108,1.6284673,85.0
-6.9510307,-17.96122,1.6521662,121.0
-6.9401393,-18.272512,1.6788276,38.0
-6.8647656,-18.890833,2.4384754,48.0
-6.8834815,-19.318403,2.490879,63.0
-6.914561,-19.290203,1.7667731,1.0
