x,y,z,intensity
-31.05388,-5.145438,0.43969417,1.0
-29.763788,-5.12319,0.41628534,64.0
-31.42655,-5.0920854,1.5583531,1.0
-28.542173,-5.0969405,0.394124,38.0
-29.796917,-5.0193176,1.4720477,1.0
-28.179295,-5.214809,0.3879599,1.0
-28.503902,-4.9850082,1.4038334,1.0
-28.228523,-5.073871,1.3902119,1.0
-28.230118,-5.5459995,0.3900146,15.0
-28.16075,-5.244528,1.3882964,112.0
-28.204512,-5.7252603,0.39019805,1.0
-31.8581,-5.2416677,0.27305844,1.0
-28.121359,-5.420224,1.3879771,79.0
-28.216904,-5.9126472,0.39111534,1.0
-30.505644,-5.217068,0.25603086,1.0
-28.125916,-5.604642,1.3901055,80.0
-31.964722,-5.103042,1.4050455,1.0
-28.216328,-6.097873,0.39181247,1.0
-29.259178,-5.1941442,0.24035224,1.0
-28.029512,-5.768727,1.3868065,184.0
-30.23111,-5.0223627,1.3228608,1.0
-28.3998,-5.2264423,0.22966228,1.0
-28.162651,-5.980942,1.3960649,218.0
-29.324787,-5.061929,1.280578,1.0
-28.13025,-6.112737,1.3958521,38.0
-28.328794,-5.028277,1.2335336,1.0
-28.340353,-6.639379,0.39621538,1.0
-28.295467,-5.5296025,0.22907688,10.0
-28.093237,-6.2898006,1.3959584,83.0
-28.17481,-5.1838455,1.2276293,152.0
-28.27977,-5.7112226,0.2293314,1.0
-28.099863,-6.4769893,1.3985125,81.0
-28.163275,-5.3648667,1.2286768,40.0
-28.28053,-5.8965254,0.22981499,1.0
-28.07027,-6.65619,1.3991511,90.0
-28.123129,-5.5405602,1.2283912,73.0
-28.260523,-6.0778713,0.23004407,1.0
-28.101467,-5.719932,1.2290578,81.0
-28.284264,-6.2691207,0.23085853,1.0
-28.386625,-5.228856,0.12122006,1.0
-28.088436,-5.901297,1.2302005,95.0
-28.285267,-6.4560275,0.23139304,1.0
-28.331606,-5.4029737,0.121022604,1.0
-28.095476,-6.041129,1.2319148,80.0
-28.21695,-5.031842,1.09512,1.0
-28.3753,-6.617322,0.23297107,1.0
-28.315641,-5.538349,0.12111236,37.0
-28.101831,-6.227447,1.234105,92.0
-28.161201,-5.2046595,1.0940883,48.0
-28.307726,-5.7217174,0.12136366,20.0
-28.106953,-6.414083,1.2362953,79.0
-28.127945,-5.381498,1.0940883,38.0
-28.29862,-5.905205,0.12161497,1.0
-28.134178,-6.6064925,1.2396284,92.0
-28.097496,-5.558902,1.0942602,39.0
-29.223772,-5.0645456,1.9567233,1.0
-28.292236,-6.089648,0.121902175,25.0
-28.105078,-5.744166,1.0961515,43.0
-30.600403,-5.0524282,0.99735934,41.0
-28.991066,-5.212193,1.9423501,1.0
-28.300266,-6.277719,0.12233298,37.0
-28.08016,-5.9231234,1.0966673,51.0
-29.30325,-5.0284452,0.9503898,1.0
-28.3012,-6.4647913,0.12270994,23.0
-28.087088,-6.062996,1.0982146,62.0
-28.267424,-4.988652,0.9127849,1.0
-28.323,-6.610395,0.1231946,9.0
-28.104994,-6.251974,1.1007075,49.0
-28.15687,-5.1518292,0.9098584,158.0
-28.094368,-6.4351506,1.101997,91.0
-28.173044,-5.337908,0.91168743,91.0
-28.133106,-6.630394,1.1055216,155.0
-28.13895,-5.5148177,0.91168743,105.0
-29.048529,-5.0408354,1.7865801,1.0
-28.123335,-5.695463,0.9124191,103.0
-28.813997,-5.186694,1.7731603,1.0
-28.10069,-5.874907,0.9129312,87.0
-29.084898,-5.4245596,1.7933551,1.0
-28.100061,-6.0130987,0.91395545,129.0
-28.835892,-6.6000314,1.9512278,1.0
-28.229298,-4.9728427,0.77270126,47.0
-29.084492,-5.566453,1.7950488,1.0
-28.124191,-6.2032685,0.9162966,74.0
-28.203394,-5.1511946,0.77289176,143.0
-29.072433,-5.753751,1.7966124,1.0
-28.1139,-6.3864746,0.91739404,123.0
-28.188147,-5.331655,0.7734633,75.0
-29.076763,-5.9447265,1.7993484,1.0
-31.25107,-5.1685104,1.7490541,1.0
-28.149132,-6.580683,0.9202473,77.0
-28.15213,-5.508275,0.7733998,111.0
-29.044695,-6.128543,1.7997392,1.0
-29.330826,-5.041706,1.6349872,1.0
-28.14635,-5.6910133,0.7743524,89.0
-31.140427,-5.1022058,0.65067303,41.0
-29.054361,-6.3215547,1.8029965,1.0
-28.130955,-5.018456,1.5643348,1.0
-28.123734,-5.8706174,0.7747969,98.0
-29.840265,-5.0827475,0.6185465,1.0
-29.056906,-6.513616,1.8058628,1.0
-28.024258,-5.1813684,1.5598148,165.0
-28.123121,-6.008949,0.77568597,99.0
-28.807539,-5.0473437,0.5929651,27.0
-28.773033,-6.5923543,1.7889253,1.0
-28.083883,-5.3293166,1.5649294,84.0
-28.119944,-6.193296,0.77682906,97.0
-28.29324,-5.141013,0.58072406,1.0
-28.045925,-5.5049005,1.5646915,132.0
-28.127256,-6.3805017,0.7783532,100.0
-28.055794,-5.6901035,1.5674273,82.0
-28.15668,-6.5735135,0.7806394,103.0
-28.167519,-5.484719,0.5792252,33.0
-28.02535,-5.8674927,1.5677841,125.0
-28.18284,-6.7666783,0.78286207,39.0
-28.142303,-5.6635566,0.579475,1.0
-28.03087,-6.0527043,1.5704008,83.0
-28.17273,-5.8540497,0.5811738,1.0
-28.015676,-6.233894,1.5718281,128.0
-28.146788,-5.9871597,0.5812237,1.0
-28.034664,-6.3768806,1.5748017,77.0
-28.145725,-6.172003,0.58217305,1.0
-28.048483,-6.5656033,1.5781322,116.0
-28.120045,-6.3517985,0.58252275,1.0
-28.161385,-6.547314,0.58462125,1.0
-28.343353,-6.7774434,0.590367,1.0
