x,y,z,intensity
-6.963153,-0.18957311,2.3242638,9.0
-6.1743336,-0.20462562,2.0573208,1.0
-7.1632705,-0.22433247,1.5930663,21.0
-5.837947,-0.22910197,1.9437418,1.0
-6.9493055,-0.26074377,1.5447913,1.0
-5.668005,-0.25752258,1.8866315,1.0
-6.5676274,-0.28664353,1.4584278,1.0
-5.572152,-0.2791458,1.854547,1.0
-6.348054,-0.30636156,1.4088242,1.0
-6.1639214,-0.19813965,1.7170488,1.0
-5.594869,-0.31562716,1.8628889,1.0
-6.2856436,-0.3427542,1.3950946,1.0
-5.8646126,-0.22442867,1.6323377,1.0
-5.5871053,-0.350398,1.8609638,55.0
-6.2872586,-0.38249046,1.3959804,1.0
-5.6632338,-0.25167248,1.5754993,141.0
-5.6131325,-0.38755527,1.8705893,33.0
-8.824663,-0.38917056,1.5052496,1.0
-6.2925134,-0.42253444,1.3977519,1.0
-5.786409,-0.2940351,1.6110233,105.0
-5.5444937,-0.4175946,1.8481301,17.0
-7.887445,-0.3953504,1.3421599,1.0
-6.245008,-0.45863205,1.3875655,1.0
-5.7710047,-0.329571,1.6071976,59.0
-6.633227,-0.19572149,2.1666255,3.0
-6.313918,-0.5038324,1.4039524,1.0
-5.7348313,-0.3545035,1.5973603,65.0
-5.533907,-0.47802323,1.846205,22.0
-6.023195,-0.20800282,1.9644403,1.0
-6.264845,-0.5294874,1.3933231,1.0
-5.738248,-0.39094198,1.5989997,64.0
-5.5439925,-0.51405656,1.8506968,26.0
-5.7391305,-0.23525967,1.8705912,1.0
-6.851485,-0.45956135,1.1625894,1.0
-6.203141,-0.5633576,1.3800364,1.0
-6.929866,-0.2686987,1.500355,1.0
-5.6570377,-0.42085448,1.5765923,116.0
-5.5255785,-0.54733115,1.8455633,79.0
-5.6427183,-0.2671674,1.8390981,1.0
-6.7266574,-0.49329928,1.1413019,1.0
-6.228588,-0.6052458,1.3866796,1.0
-6.5144234,-0.29480904,1.4087422,1.0
-5.6408625,-0.45525855,1.5727667,170.0
-6.10034,-0.18392554,1.6503085,1.0
-5.6371365,-0.3024264,1.8378384,1.0
-6.7352066,-0.5365283,1.143362,1.0
-6.2091475,-0.64271194,1.3831365,1.0
-6.3895626,-0.3297837,1.3815176,1.0
-5.6474705,-0.4915604,1.5754993,67.0
-5.8273835,-0.2132576,1.5752552,1.0
-5.514501,-0.616288,1.8442799,82.0
-5.6104875,-0.33645135,1.8296502,15.0
-8.818942,-0.31107777,1.4575534,1.0
-6.2243667,-0.6839053,1.3875655,1.0
-6.367866,-0.36885667,1.3771962,1.0
-5.5963984,-0.5223912,1.5618362,155.0
-5.7585053,-0.24721155,1.5566249,1.0
-5.5950007,-0.37086546,1.8252412,94.0
-8.832578,-0.3671012,1.46022,1.0
-6.1967077,-0.72022265,1.3822508,1.0
-6.340084,-0.40731317,1.3715785,8.0
-5.6283264,-0.5522633,1.5716736,91.0
-5.730313,-0.27315548,1.5491728,1.0
-5.466048,-0.6716494,1.8301628,89.0
-5.6064487,-0.39812028,1.8296502,105.0
-8.799228,-0.4073332,1.4548868,1.0
-6.1990514,-0.7501376,1.3835795,1.0
-6.3419914,-0.43744177,1.3724427,6.0
-5.6075306,-0.585755,1.5667549,141.0
-5.765066,-0.31099874,1.5592864,1.0
-5.592478,-0.43250155,1.825871,87.0
-7.8196025,-0.41349828,1.2895579,1.0
-6.194216,-0.7890724,1.3835795,1.0
-6.3410654,-0.47742116,1.3728749,1.0
-5.6132965,-0.6220703,1.5694876,112.0
-5.7302775,-0.34535956,1.5502374,53.0
-5.5078316,-0.7473451,1.8474884,118.0
-5.585866,-0.46732858,1.8246113,64.0
-7.3187237,-0.43443948,1.2052269,1.0
-6.196865,-0.8290356,1.385351,1.0
-5.6016374,-0.656404,1.5673014,128.0
-5.7279944,-0.38135692,1.5502374,48.0
-5.4617896,-0.77592325,1.8333712,32.0
-5.56769,-0.5011099,1.8195724,58.0
-6.1606445,-0.86352235,1.3782648,1.0
-5.6050367,-0.6925581,1.5694876,135.0
-5.7139454,-0.41653916,1.5470437,45.0
-5.505496,-0.81763816,1.8500551,110.0
-5.577662,-0.5373087,1.8239814,64.0
-6.420373,-0.19608288,2.0454366,16.0
-6.807084,-0.4913885,1.1195625,1.0
-6.1531687,-0.9019243,1.3778219,1.0
-7.8193913,-0.6387411,0.81864375,64.0
-5.5815053,-0.7252139,1.5640223,147.0
-5.676613,-0.4498149,1.5374624,85.0
-7.5792646,-0.738567,0.52833855,1.0
-5.474058,-0.84805757,1.8410715,49.0
-5.551508,-0.570099,1.8164232,65.0
-5.983651,-0.21900372,1.904299,1.0
-6.797963,-0.5337032,1.1185626,1.0
-6.1608686,-0.9426767,1.3809221,1.0
-7.3490367,-0.282813,1.5386726,1.0
-7.7846556,-0.67276454,0.814767,80.0
-5.581837,-0.7520355,1.5651153,149.0
-5.6552134,-0.4750154,1.5321394,107.0
-5.490565,-0.87720656,1.8481301,112.0
-5.541208,-0.5954697,1.8139037,64.0
-5.725949,-0.23572242,1.8210956,1.0
-6.16406,-0.97293997,1.3826936,1.0
-8.757406,-0.2038978,1.3837452,37.0
-6.9842334,-0.30073476,1.4608694,1.0
-5.5674815,-0.78571343,1.5623827,163.0
-5.6617208,-0.5113713,1.5348009,112.0
-5.4718723,-0.90946525,1.8436383,41.0
-5.546791,-0.6313131,1.817053,52.0
-5.6521473,-0.26801068,1.7976754,1.0
-6.1809072,-1.0155199,1.3880084,1.0
-5.5662394,-0.8212546,1.5634757,180.0
-5.658396,-0.5469346,1.5348009,111.0
-5.490301,-0.9481069,1.8519802,106.0
-5.531402,-0.6648341,1.8132738,57.0
-5.650352,-0.30351862,1.7976754,1.0
-6.7641644,-0.6488888,1.1145626,1.0
-6.16864,-1.0533317,1.3866796,1.0
-6.454702,-0.35771146,1.3483478,1.0
-5.566671,-0.8571108,1.5651153,149.0
-5.6452556,-0.581523,1.5321394,125.0
-5.460012,-0.9781532,1.8436383,47.0
-5.5271153,-0.69957554,1.8132738,57.0
-5.6236486,-0.33744395,1.7896632,1.0
-6.156142,-1.0910296,1.385351,1.0
-6.4542785,-0.39838684,1.3487661,1.0
-5.5687695,-0.8933164,1.5673014,138.0
-5.6414905,-0.61698145,1.5321394,125.0
-5.5095935,-1.023017,1.8628889,102.0
-5.5470843,-0.7374525,1.821462,53.0
-5.6233153,-0.37290424,1.7902795,1.0
-6.158751,-1.1314813,1.3875655,1.0
-8.806698,-0.42681134,1.3930116,31.0
-7.761653,-0.91719264,0.8150093,82.0
-5.5497713,-0.92602366,1.5634757,145.0
-5.633671,-0.65198606,1.5310749,124.0
-5.4658785,-1.0503293,1.8500551,46.0
-5.5291743,-0.77050513,1.817053,57.0
-5.617067,-0.40793964,1.7890469,1.0
-6.1438613,-1.1686724,1.3857939,1.0
-7.7434564,-0.9520265,0.8133132,171.0
-5.5567155,-0.9541605,1.5667549,130.0
-5.6343656,-0.67897433,1.5321394,150.0
-5.4757257,-1.079059,1.8551886,86.0
-5.5198426,-0.7957601,1.8151634,49.0
-5.7245407,-0.31321302,1.5016009,1.0
-5.601807,-0.43332955,1.7847326,1.0
-6.161242,-1.2021681,1.3911085,1.0
-7.7846684,-0.46077237,1.2281346,1.0
-5.554396,-0.989744,1.567848,124.0
-5.629988,-0.71436244,1.5321394,145.0
-5.4892406,-1.1176739,1.8622472,88.0
-5.5128555,-0.83015054,1.8145336,58.0
-5.6935425,-0.34730747,1.4938356,1.0
-5.60466,-0.46901453,1.7865815,1.0
-5.8582554,-0.1916427,1.8064761,1.0
-6.1459246,-1.2392895,1.3893371,1.0
-7.4034286,-0.4839142,1.1667851,1.0
-7.748473,-0.26678696,1.554095,8.0
-5.5518494,-1.0253359,1.568941,114.0
-5.621565,-0.74922675,1.5310749,146.0
-5.4654384,-1.1485746,1.856472,56.0
-5.518789,-0.8664978,1.8183128,51.0
-5.6681237,-0.38143465,1.4876235,1.0
-5.573187,-0.5015587,1.7773367,1.0
-5.7196436,-0.22356923,1.7633122,1.0
-6.1227517,-1.274651,1.3857939,1.0
-7.0871925,-0.5071205,1.11598,1.0
-7.3511505,-0.3003999,1.473014,1.0
-5.64249,-0.4067175,2.1168365,28.0
-7.8505335,-0.6404182,1.0109574,1.0
-5.5528507,-1.0616711,1.571127,107.0
-5.6110153,-0.7837535,1.529478,148.0
-5.4895606,-1.1898273,1.8673807,66.0
-5.5001144,-0.89906037,1.8139037,58.0
-5.6675415,-0.41718948,1.4881411,1.0
-5.5869646,-0.53826994,1.7828836,1.0
-5.6914372,-0.25838596,1.7549192,1.0
-6.6934423,-0.93005276,1.1082295,1.0
-6.148922,-1.3205786,1.3937659,1.0
-6.8969154,-0.5365435,1.0856248,1.0
-7.055511,-0.33354923,1.4128053,1.0
-7.762234,-1.1531464,0.81888604,38.0
-5.9386683,-0.86205053,2.3035007,1.0
-5.6193304,-0.44048128,2.1090121,87.0
-7.7320395,-0.6793852,0.994195,15.0
-5.5290966,-1.09312,1.5662084,98.0
-5.5964375,-0.8176337,1.5268165,184.0
-5.485671,-1.2251346,1.8686641,55.0
-5.4981017,-0.93422294,1.8151634,53.0
-5.6282306,-0.44973576,1.4783051,1.0
-5.5569844,-0.5705459,1.7742552,1.0
-5.6496787,-0.29221517,1.7423297,1.0
-6.683562,-0.9715346,1.1075628,1.0
-6.1462116,-1.3604699,1.3950946,1.0
-6.8599715,-0.5769555,1.0801928,29.0
-6.597343,-0.3547636,1.3192811,1.0
-7.780329,-1.2059137,0.8220359,125.0
-5.833597,-0.88460404,2.2642717,1.0
-5.6164517,-0.47577965,2.1090121,120.0
-7.700041,-0.7252826,0.9901489,1.0
-5.531537,-1.1297975,1.568941,120.0
-5.6045375,-0.8547675,1.5305425,172.0
-5.4723315,-1.2582842,1.866739,49.0
-5.510829,-0.971979,1.821462,67.0
-5.6329904,-0.4857815,1.4803759,1.0
-6.3018355,-0.2148599,1.5966327,7.0
-5.558962,-0.6060893,1.7761041,1.0
-5.6515417,-0.32791448,1.7435287,1.0
-6.150843,-1.4021379,1.3981948,1.0
-6.838519,-0.6183936,1.077317,97.0
-6.5519485,-0.39375615,1.3104506,1.0
-5.766736,-0.9025064,2.239572,1.0
-5.601119,-0.50102824,2.104033,112.0
-7.6709423,-0.75895935,0.98639184,1.0
-5.52427,-1.1554509,1.5683945,82.0
-5.5890145,-0.8794118,1.5273488,154.0
-5.4792385,-1.2871369,1.871231,36.0
-5.4987116,-0.9966104,1.8189425,48.0
-5.619099,-0.51122904,1.4772698,1.0
-6.0898347,-0.2370489,1.5420324,1.0
-5.550375,-0.6316124,1.7742552,1.0
-5.6442194,-0.35420504,1.7417302,1.0
-6.165046,-1.4360415,1.4030666,1.0
-6.8178453,-0.64887637,1.0744413,94.0
-5.6965456,-0.9284573,2.214146,1.0
-5.610881,-0.53750575,2.1090121,116.0
-7.6817627,-0.80884135,0.98870385,1.0
-5.516901,-1.190138,1.5683945,133.0
-5.5890894,-0.9154254,1.5289457,145.0
-5.406654,-1.3057386,1.8487718,17.0
-5.497942,-1.0321703,1.8208321,55.0
-5.606166,-0.5455543,1.4746814,9.0
-5.9605446,-0.26996073,1.5089716,1.0
-5.561403,-0.6683448,1.7791857,1.0
-5.626651,-0.38866454,1.7369342,1.0
-6.0895696,-1.4586325,1.3875655,1.0
-6.8116703,-0.69149584,1.0741217,153.0
-7.754421,-1.3394755,0.8215513,41.0
-5.6575103,-0.95874435,2.2010698,1.0
-5.6036754,-0.5723558,2.1075895,103.0
-5.9464955,-0.2916767,2.1751606,5.0
-7.62934,-0.8516965,0.9817677,1.0
-5.5243263,-1.2281721,1.5727667,70.0
-5.587031,-0.9511578,1.5300102,136.0
-5.4876184,-1.0659839,1.8195724,67.0
-5.6007066,-0.58056176,1.4741637,18.0
-5.863964,-0.30284128,1.4844265,1.0
-5.542,-0.7013088,1.7742552,10.0
-5.624098,-0.42400992,1.7369342,1.0
-6.1294837,-1.509147,1.3990806,1.0
-6.81504,-0.7351512,1.0753999,69.0
-8.352917,-0.465346,1.2436886,1.0
-7.759525,-1.390658,0.8232474,48.0
-5.5613937,-0.9787702,2.1654732,12.0
-5.5999684,-0.60755324,2.1075895,108.0
-5.7217336,-0.3174642,2.092306,1.0
-7.7181463,-0.9109977,0.99564004,81.0
-5.50151,-1.2593696,1.5683945,136.0
-5.5752454,-0.98525715,1.5284134,132.0
-5.435666,-1.3854383,1.864814,18.0
-5.4901247,-1.1022769,1.8227217,58.0
-5.5988674,-0.6159585,1.4746814,10.0
-5.798144,-0.33620402,1.4678961,51.0
-5.5563354,-0.73869205,1.7804184,19.0
-5.632736,-0.46022978,1.7405312,1.0
-8.56892,-1.9585277,1.497696,1.0
-8.8843355,-1.5565326,1.4905525,1.0
-6.12177,-1.548114,1.3995235,1.0
-6.802443,-0.77703696,1.0741217,36.0
-7.836697,-0.4872494,1.1651862,1.0
-7.748683,-1.4390173,0.8230051,75.0
-5.536791,-1.010415,2.1582086,68.0
-5.583047,-0.6411867,2.1026103,120.0
-5.678448,-0.35101077,2.0769882,1.0
-7.7063804,-0.9587256,0.99477303,105.0
-5.523425,-1.3010765,1.5771389,59.0
-5.5708423,-1.0206084,1.5289457,124.0
-5.437839,-1.4224801,1.8686641,15.0
-5.4942513,-1.1390219,1.8265009,61.0
-5.589133,-0.65043414,1.4731283,20.0
-5.734071,-0.36886922,1.4518666,46.0
-5.5402837,-0.7719721,1.7767204,10.0
-5.620227,-0.49480957,1.7375337,1.0
-8.125136,-1.9098386,1.4204429,1.0
-8.8646755,-1.6105828,1.4888859,1.0
-6.111922,-1.5865473,1.3995235,1.0
-7.5237513,-0.51607287,1.1177827,1.0
-7.743386,-1.4884344,0.82348967,40.0
-5.577971,-1.0540084,2.1770966,53.0
-5.588182,-0.6774114,2.1061668,75.0
-5.6536784,-0.38523343,2.068633,1.0
-7.68255,-1.0047709,0.99217194,63.0
-7.800019,-0.7480224,0.9654139,1.0
-5.503932,-1.3329979,1.5738597,114.0
-5.5681105,-1.0562956,1.5300102,115.0
-5.4721246,-1.1703985,1.821462,65.0
-5.5906854,-0.68626547,1.4746814,19.0
-5.733572,-0.40501952,1.4523675,25.0
-5.567314,-0.81154865,1.7871978,41.0
-5.626508,-0.5309746,1.7405312,1.0
-6.4167295,-0.19094843,1.9141593,1.0
-7.7703648,-1.8771611,1.3589839,1.0
-6.1451426,-1.636601,1.4097099,1.0
-6.7569003,-0.8578741,1.0683702,1.0
-7.1535783,-0.5368551,1.0616232,1.0
-5.587587,-1.0830666,2.1829083,24.0
-5.549707,-0.69917005,2.092652,96.0
-5.636837,-0.4108349,2.0630631,1.0
-7.6914525,-1.0428599,0.994195,92.0
-7.7530456,-0.78051966,0.9592719,1.0
-5.5087857,-1.36173,1.5771389,84.0
-5.5611773,-1.0821615,1.529478,101.0
-5.4273458,-1.4837035,1.8705893,15.0
-5.459125,-1.194576,1.8189425,65.0
-5.568235,-0.71009004,1.4695046,11.0
-5.714218,-0.43078542,1.4478593,50.0
-5.5352216,-0.8334231,1.777953,37.0
-5.593553,-0.55458087,1.7309393,1.0
-6.05432,-0.20757708,1.8043362,1.0
-6.67493,-1.2937925,1.1152292,1.0
-6.1392426,-1.6660578,1.4101528,1.0
-6.752783,-0.8897056,1.0683702,1.0
-7.04255,-0.5622182,1.0450169,7.0
-7.833383,-0.2961411,1.4968531,1.0
-5.55817,-0.7357901,2.0976312,64.0
-7.621015,-0.70720613,0.6697403,26.0
-5.6247964,-0.44553733,2.0595818,1.0
-7.684748,-1.0911659,0.994195,108.0
-7.746019,-0.82901216,0.9589927,1.0
-5.511299,-1.399196,1.580418,90.0
-5.5712905,-1.1204418,1.5342686,118.0
-5.481164,-1.2354237,1.8290204,54.0
-5.5713186,-0.74611545,1.4715753,42.0
-5.699816,-0.46577513,1.4448537,42.0
-5.5373898,-0.86939293,1.7804184,18.0
-5.584264,-0.58913505,1.7291408,1.0
-5.8999457,-0.23889233,1.7578502,1.0
-6.1342854,-1.7061846,1.4114815,1.0
-6.733375,-0.93018454,1.0661335,1.0
-6.958098,-0.5997308,1.0326377,1.0
-7.607839,-0.33491504,1.4531486,1.0
-5.52938,-0.76727074,2.0883844,55.0
-5.595725,-0.47872722,2.0498343,52.0
-7.683611,-1.1403157,0.995062,97.0
-7.7465625,-0.8783191,0.9598303,1.0
-5.5042586,-1.4342885,1.5809646,85.0
-5.5698075,-1.1565806,1.5358654,89.0
-5.4664774,-1.5687151,1.8911233,1.0
-5.4788456,-1.2711052,1.83091,60.0
-5.5665207,-0.7811061,1.4715753,44.0
-5.7083535,-0.5025565,1.4478593,12.0
-5.541201,-0.9057366,1.7835,9.0
-5.5937304,-0.6256468,1.7333373,1.0
-6.6581645,-1.7278262,1.1646495,1.0
-6.160924,-1.7555017,1.4203393,1.0
-6.7137256,-0.9704548,1.0638968,1.0
-6.9443464,-0.6425556,1.031128,13.0
-7.0724206,-0.35445327,1.3488711,1.0
-5.535543,-0.8036492,2.092652,53.0
-5.5851364,-0.51321733,2.047049,43.0
-7.6587005,-1.1857989,0.99246097,66.0
-7.713353,-0.9237497,0.9559217,1.0
-5.509993,-1.4728718,1.5853367,86.0
-5.5548844,-1.1899654,1.5337363,91.0
-5.4946394,-1.6143799,1.9045987,27.0
-5.4818387,-1.3081081,1.834689,67.0
-5.565324,-0.81664073,1.4726106,46.0
-5.6954417,-0.5375376,1.4453546,40.0
-5.537276,-0.94086045,1.7841163,9.0
-5.5877934,-0.6605635,1.7327378,1.0
-6.5512233,-0.21503058,1.5966804,17.0
-5.709232,-0.30242562,1.7009048,1.0
-6.6490793,-1.7701389,1.1649928,1.0
-6.1535134,-1.7952814,1.4212251,1.0
-6.7309113,-1.0162258,1.0677311,1.0
-6.9067154,-0.6829659,1.0259951,50.0
-7.6258106,-1.7030805,0.814767,1.0
-6.6722817,-0.37529522,1.2710464,1.0
-5.5174546,-0.8364057,2.087673,63.0
-5.5650024,-0.5467107,2.040783,10.0
-7.670628,-1.2370983,0.995351,118.0
-7.7191896,-0.97365177,0.95759684,1.0
-5.509898,-1.5100384,1.5880693,77.0
-5.564254,-1.2285243,1.5385269,96.0
-5.475327,-1.6461124,1.9013903,13.0
-5.480892,-1.3443075,1.8372085,51.0
-5.5658083,-0.8524904,1.4741637,47.0
-5.682316,-0.57237625,1.44285,11.0
-5.5481076,-0.9786689,1.7896632,19.0
-5.560802,-0.69291073,1.7255437,1.0
-6.322871,-0.24660957,1.5401701,1.0
-5.7167687,-0.33889174,1.7038102,1.0
-6.175719,-1.84406,1.4291971,1.0
-6.7321906,-1.0597483,1.0690093,1.0
-6.9317904,-0.72936547,1.0305241,25.0
-6.550311,-0.4093718,1.2476606,1.0
-5.5065546,-0.87016064,2.085539,39.0
-5.5614576,-0.5816657,2.040783,40.0
-7.660753,-1.2849371,0.995062,36.0
-7.707028,-1.0213681,0.9567593,35.0
-5.5206556,-1.5504222,1.594081,77.0
-5.5583067,-1.2638818,1.5390593,91.0
-5.470495,-1.3782611,1.8365786,68.0
-5.5603423,-0.8874444,1.4741637,35.0
-5.6747556,-0.6076692,1.4418482,45.0
-5.5007005,-1.0058302,1.7761041,10.0
-5.544982,-0.72639066,1.7219467,1.0
-6.113775,-0.27626842,1.4884896,1.0
-5.6419783,-0.36978722,1.6817294,1.0
-8.057089,-1.8215395,1.3622227,1.0
-6.735136,-1.1036521,1.070607,1.0
-6.917243,-0.771837,1.0290145,54.0
-7.994749,-1.059082,1.6179163,1.0
-6.542435,-0.43982154,1.2465105,8.0
-5.5079246,-0.8970215,2.087673,24.0
-5.5623837,-0.6082609,2.0421753,20.0
-7.6780043,-1.3251232,0.9985301,98.0
-7.723719,-1.0605825,0.9598303,43.0
-5.959966,-0.26126608,2.113217,44.0
-7.7206936,-0.7507753,0.9105753,137.0
-5.526223,-1.5801686,1.5979067,83.0
-5.561686,-1.2922086,1.5417207,91.0
-5.511074,-1.7233677,1.9206411,1.0
-5.476821,-1.4072853,1.8409877,85.0
-5.5332375,-0.90979284,1.4679515,11.0
-5.667979,-0.63398725,1.4408463,43.0
-5.5257993,-1.037466,1.7859652,39.0
-5.552847,-0.7540118,1.7255437,1.0
-5.9922457,-0.29867807,1.458544,1.0
-5.6497154,-0.39707533,1.6846348,1.0
-6.702619,-1.1306989,1.0661335,1.0
-6.9194226,-0.80509335,1.0299203,50.0
-8.009088,-1.0993601,1.6219302,1.0
-5.507705,-0.9325672,2.0898068,49.0
-5.558452,-0.6431982,2.0421753,11.0
-7.6539497,-1.3705077,0.996218,68.0
-7.718864,-1.1093674,0.9601095,71.0
-5.7120633,-0.2855267,2.0244281,30.0
-7.727649,-0.800527,0.9121844,91.0
-5.5309415,-1.6192359,1.602279,77.0
-5.553457,-1.3271279,1.5417207,80.0
-5.4911256,-1.7550453,1.9174325,13.0
-5.471545,-1.442624,1.8422474,87.0
-5.5464425,-0.94786406,1.4731283,35.0
-5.6638837,-0.6695875,1.4408463,42.0
-5.5061064,-1.0695778,1.781651,18.0
-5.548,-0.78888625,1.7255437,1.0
-5.9127555,-0.3317078,1.4392241,1.0
-5.6452017,-0.43241245,1.6840537,1.0
-6.754211,-1.6085799,1.139562,1.0
-6.2428718,-1.6323185,1.3936174,1.0
-6.714819,-1.1762547,1.0693288,1.0
-6.9044123,-0.84737766,1.0284107,56.0
-5.505417,-0.9678151,2.0912294,43.0
-5.5468535,-0.6772283,2.0393903,42.0
-7.6743603,-1.4240636,1.0005531,76.0
-7.709782,-1.1575553,0.9598303,50.0
-7.6193542,-0.7283074,0.63206166,37.0
-5.6275115,-0.316464,1.9946058,11.0
-7.7244363,-0.8492869,0.91245264,120.0
-5.555637,-1.6645697,1.6126629,139.0
-5.5618734,-1.3660737,1.5465113,82.0
-5.5627255,-1.8168532,1.9469503,1.0
-5.4862175,-1.4833294,1.8504356,80.0
-5.5289717,-0.9806289,1.4700222,1.0
-5.6672535,-0.7060914,1.44285,44.0
-5.5011415,-1.1045337,1.7822673,9.0
-5.5655932,-0.827013,1.7327378,1.0
-5.908618,-0.3687244,1.4387412,1.0
-5.6252136,-0.46638855,1.6788241,1.0
-5.901195,-0.18252629,1.6953107,1.0
-6.228717,-1.6705114,1.3927531,1.0
-6.7092376,-1.2187804,1.0696484,1.0
-6.889144,-0.8895052,1.026901,47.0
-7.8531423,-1.1790422,1.5926286,1.0
-5.4955516,-1.0017036,2.0898068,16.0
-5.5406284,-0.71183443,2.0386941,43.0
-7.6555486,-1.4703628,0.9991081,47.0
-7.7180157,-1.208384,0.9620637,114.0
-5.604759,-0.35044974,1.9871502,59.0
-7.7228837,-0.89827216,0.912989,72.0
-5.5854926,-1.711988,1.6246864,100.0
-5.5475674,-1.3995979,1.5449145,76.0
-5.473127,-1.5167701,1.8491758,72.0
-5.530296,-1.0167737,1.472093,19.0
-5.64926,-0.7399733,1.4393436,42.0
-5.5015397,-1.1406484,1.7847326,16.0
-5.5338755,-0.8579694,1.7243447,42.0
-5.863598,-0.40276843,1.4281152,9.0
-5.57644,-0.49747604,1.6648782,1.0
-5.7694955,-0.21519567,1.6570626,1.0
-6.2331743,-1.7137082,1.3962102,1.0
-6.7188997,-1.2642491,1.0725241,1.0
-6.887339,-0.9332926,1.0275048,27.0
-7.859134,-1.2304481,1.5954384,12.0
-8.148889,-0.32784063,1.4836795,1.0
-5.4928203,-1.03692,2.0912294,49.0
-5.5360465,-0.74663293,2.0386941,42.0
-7.640339,-1.517263,0.99824107,50.0
-7.6887608,-1.2534047,0.9589927,32.0
-5.5949397,-0.38511425,1.9844391,63.0
-7.7170873,-0.9467784,0.912989,108.0
-5.602133,-1.7557745,1.6328843,172.0
-5.5666842,-1.441577,1.5528989,75.0
-5.494563,-1.5598307,1.8598835,73.0
-5.5162125,-1.0500288,1.4700222,10.0
-5.661772,-0.77776396,1.4438518,42.0
-5.494264,-1.1751928,1.7847326,1.0
-5.5491076,-0.89599323,1.7309393,10.0
-5.8474073,-0.43853933,1.4247344,18.0
-5.5084553,-0.5260798,1.6451217,1.0
-5.7239213,-0.24967489,1.6441258,41.0
-6.7035832,-1.7307268,1.1362287,1.0
-6.248621,-1.7601683,1.4022602,1.0
-6.7146974,-1.307206,1.0731632,1.0
-6.8715477,-0.9751881,1.0259951,51.0
-8.110482,-1.3213806,1.6492248,1.0
-7.7773733,-0.36277568,1.4148848,1.0
-5.4990296,-1.0739664,2.0962086,70.0
-5.527531,-0.780891,2.0373015,44.0
-7.5919027,-1.557184,0.99246097,10.0
-7.66706,-1.2994089,0.95703846,48.0
-5.551141,-0.41700867,1.969528,78.0
-7.7090216,-0.99498844,0.9127208,88.0
-7.6469173,-0.72460026,0.8460157,1.0
-5.6074615,-1.796278,1.637803,37.0
-5.5631113,-1.47799,1.5544957,78.0
-5.491953,-1.5964165,1.8624029,67.0
-5.5170827,-1.0861872,1.472093,39.0
-5.649103,-0.8122474,1.4418482,44.0
-5.479346,-1.2080255,1.7822673,1.0
-5.5301886,-0.9286772,1.7267427,1.0
-5.8329334,-0.47428668,1.4218364,9.0
-5.5412006,-0.564497,1.6561621,1.0
-5.63213,-0.28145686,1.6176896,180.0
-9.138321,-2.4129884,1.5635506,30.0
-6.250584,-1.8031423,1.4052851,1.0
-6.71022,-1.35016,1.0738022,1.0
-6.877024,-1.0200499,1.0278068,28.0
-8.016986,-1.3581272,1.6315635,1.0
-7.0705347,-0.36505073,1.2835162,1.0
-5.501234,-1.1013622,2.0990539,68.0
-5.510797,-0.8050803,2.0324278,44.0
-7.708364,-1.6193011,1.0109574,1.0
-7.7037926,-1.3428948,0.9631805,77.0
-5.56224,-0.44425958,1.9742725,79.0
-6.5983043,-0.1819442,2.271167,27.0
-7.7179933,-1.0331819,0.91459817,98.0
-7.6987047,-0.7659813,0.8531385,1.0
-5.6903005,-1.8527752,1.6651291,174.0
-5.5858874,-1.5121446,1.5630124,70.0
-5.4916577,-1.6244068,1.8649224,58.0
-5.5327177,-1.1164522,1.4777875,18.0
-5.629883,-0.8366369,1.4378408,40.0
-5.512538,-1.2427602,1.7952101,1.0
-5.5295134,-0.9553633,1.7279418,1.0
-5.8190355,-0.5007296,1.4189384,19.0
-5.5289683,-0.58955353,1.6532568,1.0
-5.739998,-0.31357545,1.6497505,213.0
-6.2720237,-1.841285,1.4121993,1.0
-6.7347026,-1.388235,1.0789146,1.0
-6.8838716,-1.0542071,1.0296184,51.0
-6.7736115,-0.39325702,1.2286267,1.0
-5.4850597,-1.1339802,2.0954974,47.0
-5.5167565,-0.841345,2.0366054,46.0
-7.6709747,-1.6617657,1.0069113,1.0
-7.6718063,-1.3871051,0.9598303,31.0
-5.542472,-0.47768337,1.9681724,90.0
-6.2667804,-0.21323392,2.1557047,8.0
-7.697615,-1.0796916,0.9127208,91.0
-7.758858,-0.8210576,0.8615332,114.0
-5.6603117,-1.8823584,1.6596639,64.0
-5.5930114,-1.5517918,1.567803,69.0
-5.4831614,-1.659423,1.8655522,44.0
-5.5180345,-1.1495897,1.4757167,10.0
-5.6398306,-0.87431216,1.4418482,19.0
-5.512028,-1.2791188,1.7976754,1.0
-5.530919,-0.99140656,1.7303398,1.0
-5.8157744,-0.5372816,1.4189384,9.0
-6.463652,-0.2616696,1.5050064,1.0
-5.500444,-0.6213976,1.6457027,1.0
-5.873959,-0.35744125,1.6896861,254.0
-6.729707,-1.4313556,1.0795537,1.0
-6.875159,-1.0971328,1.0293164,27.0
-6.643441,-0.4279821,1.2048413,1.0
-5.4942665,-1.1719903,2.1018991,41.0
-5.513214,-0.8762785,2.0373015,50.0
-7.691268,-1.716909,1.0115354,1.0
-7.688257,-1.4399545,0.9634597,111.0
-5.5337424,-0.51195747,1.9661391,79.0
-5.8540077,-0.23735774,2.0118713,9.0
-7.7004805,-1.1294994,0.9140618,98.0
-7.7673497,-0.8713035,0.863314,67.0
-5.5980005,-1.5910674,1.5720614,69.0
-5.499857,-1.7021639,1.8750001,32.0
-5.5484476,-1.1924915,1.4860704,21.0
-5.6227503,-0.9079198,1.4388427,10.0
-5.5242224,-1.3186587,1.8044549,1.0
-5.502054,-1.0220387,1.7231457,1.0
-5.820007,-0.57460195,1.4208704,20.0
-6.2091846,-0.29125187,1.4448128,1.0
-5.5420165,-0.6615556,1.6596485,1.0
-5.8543587,-0.3932432,1.6846237,254.0
-6.730217,-1.4757538,1.0811514,1.0
-6.858373,-1.1387181,1.0278068,57.0
-6.648468,-0.47024632,1.206305,8.0
-5.4904428,-1.2073045,2.1033218,89.0
-5.4927926,-0.908508,2.0317314,43.0
-5.521057,-0.5457569,1.9627502,83.0
-5.6675467,-0.26611882,1.9472125,18.0
-7.69519,-1.1781653,0.91433,89.0
-7.7439866,-0.91803414,0.8610245,89.0
-5.5897465,-1.6267414,1.5725937,72.0
-5.503548,-1.7412164,1.880039,9.0
-5.5163455,-1.2218106,1.4793406,17.0
-5.6245775,-0.94448584,1.4408463,19.0
-5.5047507,-1.3505821,1.8007569,1.0
-5.5292745,-1.0629506,1.7339368,1.0
-5.7989163,-0.6092728,1.4165235,21.0
-6.150878,-0.32744586,1.431385,1.0
-5.5263634,-0.69488966,1.6561621,1.0
-5.8383703,-0.42908105,1.6806865,254.0
-6.74583,-1.5237402,1.0853052,78.0
-6.85888,-1.1831093,1.0290145,53.0
-7.892657,-1.0232943,1.5202389,1.0
-5.4954996,-1.2447144,2.108301,120.0
-5.4906735,-0.9436237,2.033124,12.0
-7.698698,-1.5422112,0.96764743,59.0
-5.500684,-0.5786022,1.9566503,90.0
-5.597877,-0.2983524,1.9234601,14.0
-7.689592,-1.2268095,0.91459817,108.0
-7.7479115,-0.96787643,0.8622964,93.0
-5.6053085,-1.6694446,1.5800458,69.0
-5.4961157,-1.7769167,1.8812988,8.0
-5.5085597,-1.2564465,1.4793406,9.0
-5.608989,-0.978178,1.4383417,10.0
-5.488783,-1.3832563,1.7982917,1.0
-5.526232,-1.0984013,1.7351358,1.0
-5.800758,-0.6463611,1.4179724,21.0
-6.0943065,-0.363028,1.4184202,1.0
-5.5920515,-0.7391303,1.6776619,1.0
-5.8546963,-0.4672164,1.6863111,254.0
-6.745732,-1.5683588,1.0869029,146.0
-6.8571525,-1.2272092,1.0299203,49.0
-7.9910645,-1.087422,1.5409411,1.0
-5.4984837,-1.2818044,2.1125686,88.0
-5.486483,-0.9784262,2.0338202,42.0
-7.733485,-1.5996643,0.97406864,38.0
-5.4950705,-0.6129369,1.9559724,81.0
-5.5808115,-0.33267483,1.9181819,56.0
-7.699321,-1.2780669,0.9170119,90.0
-7.737742,-1.0160323,0.8617876,91.0
-5.6611686,-1.7246276,1.5992084,55.0
-5.544393,-1.8308493,1.9020841,1.0
-5.5381393,-1.2999966,1.4896941,9.0
-5.608452,-1.0144143,1.4398445,18.0
-5.4965463,-1.4220642,1.8038386,1.0
-5.5136104,-1.1319708,1.7333373,1.0
-5.8004355,-0.6832629,1.4189384,21.0
-6.1190915,-0.4030122,1.4249027,1.0
-5.644137,-0.78233683,1.6950941,1.0
-5.6909733,-0.49071503,1.6390636,209.0
-6.7549324,-1.6153603,1.0900981,151.0
-6.8687563,-1.2738179,1.0329396,54.0
-8.64065,-1.2190012,1.6701379,1.0
-5.492382,-1.3077011,2.1125686,101.0
-5.4891934,-1.0055943,2.0366054,13.0
-7.737492,-1.6385214,0.9757437,29.0
-5.4790435,-0.637255,1.951228,98.0
-5.560336,-0.3578263,1.911584,80.0
-7.687354,-1.3133183,0.9162073,91.0
-7.7368007,-1.0530089,0.8622964,43.0
-5.7009087,-1.7659544,1.613048,39.0
-5.516936,-1.3224236,1.4855527,8.0
-5.618849,-1.0436065,1.4438518,12.0
-5.489784,-1.4479502,1.8038386,1.0
-5.510083,-1.1583261,1.7339368,1.0
-5.7855983,-0.7091321,1.4160404,19.0
-6.043356,-0.42688122,1.4073076,1.0
-5.59116,-0.8016859,1.6799861,1.0
-5.5891743,-0.5088392,1.609815,47.0
-6.7510786,-1.6481218,1.0907372,46.0
-6.8568473,-1.3050798,1.0320338,47.0
-6.7331977,-1.4288472,1.3758773,1.0
-8.634761,-1.2735585,1.6705213,7.0
-5.4931273,-1.3444393,2.116125,98.0
-5.5104165,-1.0452045,2.047049,43.0
-7.7193007,-1.685435,0.97462696,60.0
-5.486132,-0.6730841,1.9552946,85.0
-5.5711646,-0.3936391,1.9162025,86.0
-7.6887035,-1.3633486,0.9175483,86.0
-7.7359257,-1.1024239,0.8630596,96.0
-5.69706,-1.8040421,1.6151772,54.0
-5.5235105,-1.3608118,1.4896941,8.0
-5.617889,-1.0799663,1.4453546,36.0
-5.4695683,-1.4793946,1.8001406,1.0
-5.7810283,-0.7454698,1.4160404,10.0
-6.0638394,-0.46655735,1.4128639,1.0
-5.652218,-0.8469618,1.7003238,1.0
-5.625996,-0.54770774,1.621627,75.0
-6.763553,-1.6963378,1.0945716,59.0
-6.8659806,-1.3515224,1.0347512,28.0
-5.4918165,-1.380776,2.1189704,86.0
-5.483488,-1.0759094,2.0393903,27.0
-5.4724684,-0.7063023,1.9519057,86.0
-5.551635,-0.42739335,1.9102644,86.0
-7.687779,-1.4130844,0.91862106,104.0
-7.7366977,-1.1521565,0.8640771,40.0
-5.65256,-1.8292308,1.6055958,35.0
-5.516722,-1.3959706,1.4902118,7.0
-5.591988,-1.1115358,1.4403454,9.0
-5.4876404,-1.5214547,1.8093854,1.0
-5.778153,-0.7820451,1.4165235,20.0
-6.035575,-0.50263363,1.4068445,1.0
-5.637336,-0.8809477,1.6974185,1.0
-5.5995264,-0.5807527,1.6148772,89.0
-6.7890606,-1.7482606,1.1006427,49.0
-6.8495994,-1.3930821,1.0335435,48.0
-5.497498,-1.4190439,2.124661,89.0
-5.4821362,-1.1114392,2.041479,43.0
-5.4735136,-0.74145097,1.9539391,142.0
-5.539429,-0.46151727,1.9069655,93.0
-7.690425,-1.4636135,0.9202302,84.0
-7.731267,-1.201044,0.8643315,113.0
-5.5190506,-1.4335594,1.493318,1.0
-5.6095686,-1.1516236,1.4468575,17.0
-5.4816294,-1.5569571,1.8106182,1.0
-5.775046,-0.81861377,1.4170064,10.0
-6.0206666,-0.5395432,1.4040663,1.0
-5.6430163,-0.918235,1.7009048,1.0
-5.6129436,-0.6177517,1.6199394,90.0
-8.673831,-2.2977073,1.4182544,53.0
-6.863944,-1.4408985,1.0371667,26.0
-7.9376373,-1.3224494,1.5374907,1.0
-5.50111,-1.4569526,2.12964,80.0
-5.486064,-1.1481267,2.0456567,13.0
-5.479919,-0.77745414,1.9580058,50.0
-5.538301,-0.4964749,1.9076253,79.0
-7.681077,-1.5119047,0.9202302,95.0
-7.7314043,-1.2508439,0.86534905,75.0
-5.5416384,-1.4767772,1.5021185,1.0
-5.602222,-1.1868465,1.4468575,10.0
-5.4717383,-1.5913682,1.8106182,1.0
-5.7755446,-0.8557565,1.4184554,19.0
-6.0055337,-0.57628536,1.4012882,1.0
-5.6295924,-0.95236903,1.6985805,1.0
-5.5822506,-0.6499953,1.6120648,95.0
-6.866356,-1.4864736,1.0389782,53.0
-6.3337784,-1.8540107,1.3772101,1.0
-7.8576393,-1.3597304,1.5233059,1.0
-7.8695493,-0.93950003,1.4408658,1.0
-5.5044622,-1.4949626,2.1346192,76.0
-5.5062532,-1.1884078,2.0561004,37.0
-5.467485,-0.81073856,1.9552946,82.0
-5.521912,-0.53004843,1.9030068,95.0
-7.671426,-1.5601362,0.9202302,88.0
-7.735135,-1.3013409,0.86687535,36.0
-5.550867,-1.5167247,1.5072954,1.0
-5.6135855,-1.2260873,1.4518666,19.0
-5.505351,-1.6389002,1.8254099,1.0
-5.760469,-0.89051217,1.4160404,9.0
-6.0056667,-0.6143906,1.4022143,1.0
-5.608428,-0.98501956,1.6939319,1.0
-5.578057,-0.68505657,1.6120648,88.0
-6.8839135,-1.5355346,1.0432054,43.0
-7.8962646,-0.9803702,1.4467206,1.0
-5.5027556,-1.5223995,2.136753,64.0
-5.4950953,-1.2131493,2.0540118,25.0
-5.4914875,-0.84086853,1.9654614,73.0
-5.5061984,-0.5547873,1.8983883,85.0
-7.658171,-1.595042,0.91942567,88.0
-7.662428,-1.3264464,0.85822624,140.0
-5.5603914,-1.5475866,1.5119544,1.0
-5.58316,-1.247127,1.4453546,9.0
-5.4684625,-1.6558989,1.8155487,1.0
-5.7677016,-0.91952115,1.4189384,19.0
-5.991093,-0.64148104,1.3994361,1.0
-5.558554,-1.003118,1.6799861,1.0
-5.569052,-0.7106267,1.6103774,95.0
-6.8862453,-1.5701269,1.0447149,13.0
-5.590096,-1.5848154,2.1751635,39.0
-5.5074916,-1.2521516,2.0616705,49.0
-5.4712396,-0.87292945,1.9600391,157.0
-5.5157504,-0.5907318,1.9030068,89.0
-7.669301,-1.6477627,0.92237574,47.0
-7.73794,-1.3894227,0.8691648,61.0
-5.5635495,-1.5862463,1.5155783,1.0
-5.586545,-1.2847458,1.4483602,9.0
-5.483367,-1.6981958,1.8241771,1.0
-5.7503295,-0.95379674,1.4160404,9.0
-5.98501,-0.6788985,1.3989731,1.0
-5.5596614,-1.0394573,1.6823105,1.0
-5.570187,-0.74634784,1.6120648,98.0
-6.87817,-1.6138092,1.0450169,38.0
-5.495861,-1.2858902,2.060278,39.0
-5.504604,-0.9139027,1.9742725,90.0
-5.495039,-0.62352264,1.8970687,95.0
-7.719301,-1.4362248,0.8678929,89.0
-5.573851,-1.627198,1.5212728,1.0
-5.5896773,-1.3224562,1.4513657,17.0
-5.488896,-1.7378414,1.8297241,1.0
-5.770983,-0.9946159,1.4228023,19.0
-5.9960876,-0.7182891,1.4026773,1.0
-5.5605307,-1.07585,1.6846348,1.0
-5.563486,-0.7810715,1.6115024,104.0
-6.921746,-1.6698226,1.0534711,7.0
-5.4858484,-1.319964,2.0595818,13.0
-5.4913406,-0.9471645,1.9715613,100.0
-5.4816356,-0.6569477,1.8937697,83.0
-7.704278,-1.4835877,0.86712974,85.0
-5.550574,-1.6582707,1.5176489,1.0
-5.58879,-1.3593546,1.4533694,9.0
-5.49595,-1.7782155,1.8358873,1.0
-5.766529,-1.0312045,1.4232854,10.0
-5.9953184,-0.7564233,1.4036033,1.0
-5.4992805,-1.0996866,1.6677836,1.0
-5.5622683,-0.81655604,1.6126274,84.0
-7.066665,-1.7513692,1.0779276,1.0
-5.5157022,-1.3637196,2.0742033,43.0
-5.488983,-0.98232514,1.9729168,107.0
-5.4736514,-0.69091755,1.8924502,98.0
-7.706484,-1.5342593,0.8686561,84.0
-5.5492725,-1.6959685,1.5202373,1.0
-5.5876594,-1.3962941,1.455373,19.0
-5.5351934,-1.8296083,1.8531443,1.0
-5.758029,-1.0670558,1.4228023,19.0
-6.0000954,-0.7953237,1.4059185,1.0
-5.4903893,-1.1338239,1.6672025,1.0
-5.558926,-0.85177225,1.6131898,93.0
-5.5124817,-1.3997134,2.076292,20.0
-5.4845514,-1.0171437,1.9735947,105.0
-5.4692025,-0.72529566,1.8924502,85.0
-7.7141886,-1.5862007,0.8709456,30.0
-5.5863953,-1.7459518,1.5336971,1.0
-5.588162,-1.4337475,1.4578776,9.0
-5.5811133,-1.572546,1.7866926,1.0
-5.743592,-1.1017243,1.4208704,9.0
-5.9756994,-0.8303945,1.4012882,1.0
-5.4176984,-1.1541027,1.6468649,1.0
-5.5515685,-0.8863872,1.6126274,96.0
-6.442201,-1.8297215,1.3377452,1.0
-5.523991,-1.4303097,2.0832546,16.0
-5.494475,-1.0458461,1.9790169,110.0
-5.471338,-0.7518109,1.8944296,95.0
-5.5928187,-1.7769884,1.5378386,1.0
-5.5757184,-1.4586148,1.4563749,18.0
-5.573641,-1.5988289,1.7866926,1.0
-5.7554636,-1.132209,1.4252173,18.0
-5.9852076,-0.8604377,1.4045295,1.0
-5.440224,-1.1858361,1.655581,1.0
-5.55112,-0.9131478,1.6137524,95.0
-6.6281066,-1.46845,1.2917485,1.0
-7.9795213,-1.3360282,1.4716039,1.0
-5.525778,-1.4678388,2.0874321,1.0
-5.491485,-1.0810884,1.9803724,101.0
-5.4814644,-0.78826827,1.8997078,74.0
-7.663307,-1.6638552,0.86662096,1.0
-5.632933,-1.8289751,1.5523336,1.0
-5.577675,-1.4965903,1.4593804,10.0
-5.5653176,-1.6343485,1.7872921,1.0
-5.744435,-1.1675626,1.4242513,10.0
-5.979683,-0.8980266,1.4045295,1.0
-5.4121437,-1.2153069,1.6491892,1.0
-5.5395937,-0.9470585,1.6120648,85.0
-7.9283333,-1.3788342,1.4635534,1.0
-5.5345535,-1.5073919,2.0943947,1.0
-5.4937963,-1.1174796,1.9837613,98.0
-5.4838758,-0.82378805,1.902347,42.0
-7.6778827,-1.7175367,0.869928,1.0
-5.5943236,-1.5387032,1.4663934,23.0
-5.5640855,-1.6719974,1.7902896,1.0
-5.748374,-1.2060633,1.4271493,20.0
-5.9970016,-0.939115,1.4100858,1.0
-5.415579,-1.2519153,1.6526756,1.0
-5.529752,-0.98118895,1.61094,50.0
-7.892411,-1.4238036,1.4584304,1.0
-5.535819,-1.5451224,2.0985723,1.0
-5.4737864,-1.1492226,1.9790169,108.0
-5.3964725,-0.8456721,1.8733164,140.0
-5.599469,-1.5779723,1.4704007,50.0
-5.568076,-1.711358,1.7950857,1.0
-5.727414,-1.2392383,1.4237683,10.0
-5.9813757,-0.9752432,1.4077706,1.0
-5.4429493,-1.2944587,1.6637161,1.0
-5.5291443,-1.0169349,1.6126274,65.0
-5.5530686,-1.5875093,2.1090162,1.0
-5.4811583,-1.1868315,1.9844391,115.0
-5.523433,-0.90065473,1.9201612,120.0
-5.5819955,-1.6110018,1.468397,50.0
-5.566325,-1.7491374,1.7980831,1.0
-5.738443,-1.279489,1.4285983,20.0
-5.973211,-1.012487,1.4073076,1.0
-5.4644256,-1.3360116,1.6730132,1.0
-5.5283055,-1.0527118,1.6143148,83.0
-5.5429845,-1.6223686,2.1090162,1.0
-5.486438,-1.2241619,1.9891835,81.0
-5.536291,-0.93842936,1.926759,94.0
-5.5866337,-1.6503791,1.4724044,29.0
-5.567956,-1.7881165,1.8022796,1.0
-5.71517,-1.3119929,1.4247344,19.0
-5.9686484,-1.0503284,1.4077706,1.0
-5.457778,-1.3707919,1.6735944,1.0
-5.52912,-1.0888823,1.6165646,81.0
-5.5766497,-1.6606338,2.12503,59.0
-5.471443,-1.2478771,1.9857947,57.0
-5.511335,-0.9610148,1.9195014,169.0
-5.6140633,-1.6871529,1.4819219,43.0
-5.5649157,-1.8160919,1.8040781,1.0
-5.73158,-1.3443067,1.4305303,10.0
-5.9732113,-1.0801423,1.4100858,1.0
-5.471631,-1.4017936,1.6799861,1.0
-5.544637,-1.1190277,1.6227518,120.0
-5.587651,-1.7021211,2.1333852,31.0
-5.4451914,-1.2778647,1.9790169,85.0
-5.5609612,-1.0055017,1.9392949,107.0
-5.6200266,-1.7274559,1.4864302,37.0
-5.7135944,-1.3779848,1.4281152,19.0
-5.952912,-1.1151886,1.4068445,1.0
-5.4701114,-1.4381179,1.6823105,1.0
-5.5243344,-1.1511502,1.6188146,61.0
-5.6019335,-1.7449147,2.1431327,5.0
-5.4388824,-1.3125005,1.9796947,71.0
-5.545249,-1.0387176,1.935996,61.0
-5.6571403,-1.7776601,1.4994541,34.0
-5.721763,-1.4181174,1.4324622,10.0
-5.9534326,-1.1540251,1.4086967,1.0
-5.475735,-1.4764979,1.686959,1.0
-5.537649,-1.1901997,1.6250018,101.0
-5.432353,-1.3471074,1.9803724,78.0
-5.5015163,-1.0664871,1.9228003,136.0
-5.7183776,-1.4554957,1.4339112,19.0
-5.9689727,-1.1959188,1.414253,1.0
-5.4700356,-1.5119064,1.6881212,1.0
-5.5019317,-1.2188449,1.6165646,59.0
-6.441081,-1.8031663,1.2721965,1.0
-7.869096,-1.7669485,1.4668467,1.0
-5.443821,-1.3863939,1.987828,83.0
-5.542874,-1.1105028,1.9399548,57.0
-5.7185,-1.4938815,1.4363261,9.0
-5.9422746,-1.2295207,1.4096227,1.0
-5.4953775,-1.5562778,1.6991616,1.0
-5.5353646,-1.262633,1.628939,84.0
-7.934512,-1.8338759,1.4814839,1.0
-5.435003,-1.4205709,1.987828,77.0
-5.491381,-1.1362869,1.92412,146.0
-5.7258573,-1.5343611,1.4406731,19.0
-5.924911,-1.2648336,1.4073076,1.0
-5.5038514,-1.5961709,1.7049724,1.0
-5.521712,-1.2960919,1.6272516,82.0
-7.9755654,-1.8828684,1.4909981,1.0
-5.44278,-1.4500947,1.9932503,74.0
-5.535874,-1.1725353,1.9419341,61.0
-5.7073402,-1.5582209,1.4377751,9.0
-5.937907,-1.2968277,1.4119378,1.0
-5.5311055,-1.6325052,1.7160128,1.0
-5.513675,-1.3216572,1.6266892,73.0
-7.7991543,-1.8934654,1.4595282,1.0
-5.4498816,-1.4887853,1.9993503,73.0
-5.4970155,-1.2005597,1.9307178,140.0
-5.7198434,-1.6004022,1.4435711,18.0
-5.9524374,-1.3391595,1.4174942,1.0
-5.5408697,-1.6733825,1.7224046,1.0
-5.5295095,-1.3621558,1.6340013,75.0
-7.81192,-1.9485548,1.4642853,1.0
-5.4657617,-1.5301911,2.0088391,65.0
-5.5446677,-1.2473078,1.9505113,38.0
-5.711539,-1.6368504,1.4440541,9.0
-5.9249363,-1.3722066,1.4128639,1.0
-5.52842,-1.7075924,1.7218236,1.0
-5.545052,-1.4029052,1.6413134,83.0
-6.6368723,-1.7029513,1.2410684,1.0
-5.4686875,-1.568179,2.0135837,56.0
-5.448359,-1.2619923,1.9188416,53.0
-5.7271876,-1.6804432,1.450816,8.0
-5.931351,-1.4129632,1.4165682,1.0
-5.550393,-1.7527825,1.7322829,1.0
-5.5398464,-1.4386696,1.6424384,76.0
-5.4767623,-1.6078733,2.0203614,61.0
-5.443999,-1.297062,1.9201612,102.0
-5.729514,-1.7203459,1.454197,8.0
-5.94127,-1.4547673,1.4211984,1.0
-5.5574627,-1.7935629,1.7380936,1.0
-5.538123,-1.4753988,1.6446882,69.0
-6.5579557,-1.7710078,1.2300905,1.0
-5.471952,-1.6438963,2.0223947,47.0
-5.426564,-1.3290296,1.9168622,66.0
-5.7334185,-1.7609202,1.458061,8.0
-5.9376774,-1.4934735,1.4225875,1.0
-5.596915,-1.8454005,1.7543638,1.0
-5.5583954,-1.5181528,1.6536878,81.0
-5.4893103,-1.6774517,2.0318837,58.0
-5.434908,-1.3581957,1.9221406,92.0
-5.76577,-1.8007848,1.4686868,1.0
-5.9362326,-1.5228691,1.4239765,1.0
-5.560434,-1.5468686,1.6565002,75.0
-5.5217185,-1.7255301,2.0481503,47.0
-5.4390807,-1.3955554,1.926759,81.0
-5.9416122,-1.5640498,1.4276809,1.0
-5.570929,-1.5874895,1.6626874,94.0
-5.546576,-1.7717663,2.0617058,23.0
-5.4393425,-1.4320728,1.930058,80.0
-5.9203877,-1.5983456,1.4249027,1.0
-5.6438394,-1.6463603,1.6879987,189.0
-5.453956,-1.4725331,1.9386352,81.0
-5.9196124,-1.6380762,1.4272177,1.0
-5.76041,-1.719233,1.7268091,254.0
-5.455525,-1.5097542,1.9425939,78.0
-5.9129505,-1.6762866,1.4281439,1.0
-5.747657,-1.7548383,1.7262467,254.0
-5.4641137,-1.5490868,1.9491918,75.0
-5.909783,-1.7155503,1.4299959,1.0
-5.551284,-1.7337753,1.669437,239.0
-5.462201,-1.5763696,1.9511712,83.0
-5.9109716,-1.7461056,1.432311,1.0
-5.603485,-1.7788708,1.6879987,202.0
-5.4757524,-1.6175277,1.9597484,73.0
-5.955813,-1.7999136,1.4462019,1.0
-5.5885425,-1.8128715,1.6868737,78.0
-5.4781456,-1.6556793,1.9643668,73.0
-5.5019445,-1.7005386,1.9769027,65.0
-5.500163,-1.737887,1.9802017,60.0
-5.521512,-1.7827395,1.9920778,50.0
-6.1417007,-0.7338225,2.37542,1.0
-6.140668,-0.77285045,2.376873,1.0
-6.11721,-0.80903566,2.3696084,1.0
-6.060302,-0.8404596,2.3492675,1.0
-5.9481764,-1.1904217,2.3289266,28.0
