x,y,z,intensity
-10.277343,3.2268574,1.8431029,1.0
-10.321915,3.1696925,1.8475665,32.0
-10.283894,3.10517,1.8379527,5.0
-10.269166,3.03052,1.8317726,1.0
-10.68915,3.6336262,1.2390289,1.0
-10.269062,2.9605155,1.8283391,1.0
-10.666535,3.5514233,1.2332138,1.0
-10.258997,2.8879807,1.8231889,1.0
-10.658421,3.4745436,1.2293371,1.0
-10.248426,2.8156898,1.8180387,1.0
-10.266531,3.4041016,1.794211,1.0
-10.642193,3.3955066,1.2244911,1.0
-10.296381,2.759344,1.8235322,1.0
-10.287716,3.3395283,1.794211,1.0
-10.633438,3.3376348,1.2213413,1.0
-11.610216,3.4429703,0.9218624,1.0
-10.267327,2.6998498,1.8159785,25.0
-10.258282,3.2765265,1.7862113,1.0
-10.659895,3.272495,1.2220682,1.0
-11.6029005,3.3616853,0.9192459,1.0
-10.23062,2.6216936,1.8063649,99.0
-10.261736,3.2066817,1.7832114,11.0
-10.634586,3.1918395,1.216253,1.0
-11.593104,3.2800894,0.916455,1.0
-10.440062,2.605177,1.8410429,239.0
-10.251524,3.1328638,1.7778782,49.0
-10.662055,3.127179,1.2172222,1.0
-10.52604,3.783918,1.4941763,1.0
-11.575057,3.196641,0.91296625,1.0
-10.488789,2.5473728,1.8468798,254.0
-10.252121,3.0627096,1.774545,52.0
-10.670036,3.0568664,1.2157685,1.0
-10.439413,3.679099,1.4771249,133.0
-11.548722,3.1114893,0.90877986,1.0
-10.244675,2.990447,1.7698784,34.0
-10.667991,2.9839208,1.2131032,1.0
-11.554549,3.035345,0.9075588,28.0
-10.246203,2.9211206,1.7668785,68.0
-10.678103,2.9325716,1.2126186,1.0
-10.426742,3.5463455,1.4690326,75.0
-11.535911,2.9724667,0.9045934,70.0
-10.248467,2.8695922,1.7648785,89.0
-10.698236,2.865932,1.2128608,1.0
-10.439424,3.4776528,1.4675877,43.0
-11.53696,2.8955908,0.9030235,45.0
-10.239676,2.797815,1.760212,102.0
-10.291943,3.467721,1.723724,1.0
-10.694893,2.7931774,1.2101957,1.0
-10.402708,3.3930762,1.4586284,28.0
-10.555575,3.868463,1.4456084,96.0
-11.52201,2.815063,0.9000581,10.0
-10.241817,2.7293308,1.7575454,94.0
-10.302272,3.399296,1.7218068,55.0
-10.710307,2.7254386,1.2099533,1.0
-10.895726,3.1606057,1.1818181,1.0
-10.348367,3.3037138,1.4470682,1.0
-10.484685,3.767734,1.43137,134.0
-11.554983,2.7462718,0.9014536,1.0
-10.249226,2.6624289,1.7558787,102.0
-10.28583,3.322432,1.7154162,70.0
-10.696374,2.6505075,1.2060765,1.0
-10.91728,3.0926287,1.1820494,1.0
-11.184707,3.669731,1.1851739,1.0
-10.399161,3.248012,1.4516923,92.0
-10.472684,3.6892157,1.4260656,43.0
-11.566184,2.6722806,0.9009303,1.0
-11.072637,2.195691,1.9330598,1.0
-10.275306,2.6004162,1.7575454,108.0
-10.282014,3.2500498,1.7112623,57.0
-10.745641,2.591099,1.2101957,1.0
-11.370369,3.6513658,1.2043971,1.0
-10.389064,3.1734152,1.4470682,167.0
-11.586636,2.6004217,0.90127915,1.0
-11.254621,2.158059,1.962931,1.0
-10.283786,2.533902,1.7562121,124.0
-10.272035,3.176108,1.7061499,84.0
-10.749999,2.538622,1.2092264,1.0
-11.281265,3.5643947,1.1918796,1.0
-10.372075,3.525777,1.4051269,19.0
-11.614335,2.5491827,0.9026746,1.0
-11.442907,2.1379795,1.994519,1.0
-10.314774,2.490077,1.7595453,59.0
-10.258538,3.1191058,1.701357,93.0
-10.424926,3.7893257,1.6600538,1.0
-10.788967,2.4763148,1.212134,1.0
-10.316931,3.027983,1.4308839,68.0
-10.37149,3.4529893,1.4017767,1.0
-11.63792,2.4778042,0.90337235,1.0
-10.245743,3.0450878,1.695925,98.0
-10.398279,3.705737,1.6519016,1.0
-10.819821,2.4119043,1.2140723,1.0
-10.322429,2.959308,1.4288608,97.0
-10.351582,3.3741758,1.3956347,1.0
-11.692298,2.4126186,0.90686107,1.0
-10.245703,2.9751828,1.6927297,89.0
-10.417626,3.639019,1.6512977,1.0
-10.939584,2.3663492,1.2271564,1.0
-10.306497,2.8848555,1.4236587,99.0
-10.323552,3.2933273,1.3883759,37.0
-10.559095,3.8159778,1.3801807,31.0
-11.810811,2.3596194,0.9161061,1.0
-12.405287,3.4341185,0.8508841,41.0
-10.477271,2.3214624,1.7798781,1.0
-10.2280855,2.9005835,1.6866586,83.0
-10.399159,3.5593307,1.6446552,1.0
-11.047535,2.3169594,1.2387867,1.0
-10.326329,2.8205593,1.4239477,122.0
-10.31759,3.220088,1.3844674,56.0
-12.314913,3.326127,0.84199625,1.0
-10.6015,2.2794209,1.7988776,1.0
-10.228974,2.8315542,1.6837829,70.0
-10.368864,3.4762268,1.6362011,1.0
-11.171176,2.2877738,1.2528399,1.0
-11.37304,3.2234733,1.190762,1.0
-11.296828,3.6449442,1.1150731,1.0
-10.345243,2.773393,1.4248147,136.0
-10.306159,3.1632466,1.3805588,89.0
-10.459983,3.6509192,1.3600663,1.0
-12.288026,3.2568858,0.838625,1.0
-10.720155,2.2523446,1.8175437,1.0
-10.225049,2.7786932,1.6809071,77.0
-10.340098,3.4123719,1.6289548,1.0
-11.32559,2.2450857,1.2702852,1.0
-10.314456,3.0949926,1.3788837,95.0
-10.422668,3.5647123,1.3514841,1.0
-12.269616,3.1697006,0.83556026,1.0
-10.863517,2.2115383,1.8398765,1.0
-10.236577,2.7128866,1.6799486,69.0
-10.336892,3.3393893,1.6250296,26.0
-11.485754,2.2016575,1.2884575,1.0
-11.506713,3.1055195,1.2017148,1.0
-10.36009,2.6383276,1.4219246,160.0
-10.316605,3.0250769,1.376371,115.0
-10.407251,3.4866326,1.3461202,1.0
-12.823032,2.2473948,1.0014045,1.0
-12.215775,3.0741718,0.8297372,1.0
-11.205999,2.208651,1.8965416,1.0
-10.255333,2.6490052,1.680268,79.0
-10.327526,3.2647836,1.6201987,68.0
-11.638002,2.1548717,1.3056606,1.0
-11.489464,3.023612,1.1974678,83.0
-10.38415,2.5750723,1.4230807,92.0
-10.312573,2.9536097,1.3730209,101.0
-10.385613,3.4070451,1.3399518,1.0
-12.256163,3.0025427,0.8314228,1.0
-11.337782,2.1609287,1.9168744,51.0
-10.267944,2.583561,1.679629,89.0
-10.315743,3.18984,1.6150658,54.0
-11.82139,2.1117918,1.3267404,1.0
-11.488975,2.946458,1.1952325,48.0
-10.392426,2.507934,1.4219246,199.0
-10.317585,2.8849974,1.3710666,134.0
-10.357723,3.3260603,1.3329788,1.0
-12.228213,2.9144557,0.8277451,1.0
-11.548894,2.1264153,1.9508735,58.0
-10.264789,2.5143347,1.6764337,93.0
-10.314777,3.1186287,1.6117445,80.0
-12.03013,2.070827,1.3509701,1.0
-10.452311,2.4529028,1.4285718,40.0
-10.354604,2.8253632,1.3738585,89.0
-10.359498,3.25501,1.3302969,71.0
-10.5091,3.716131,1.290429,1.0
-12.248227,2.8380136,0.8278983,1.0
-10.284227,2.450698,1.6770728,95.0
-10.309534,3.0464277,1.6078194,87.0
-12.221906,2.0442734,1.3735038,1.0
-12.5152025,3.5463967,1.2352289,1.0
-10.337211,2.768282,1.3693914,149.0
-10.342512,3.1962683,1.3257376,89.0
-10.45348,3.6409853,1.2805079,1.0
-12.274088,2.3084655,0.89135414,1.0
-12.271193,2.782453,0.82866454,1.0
-10.309126,2.4053218,1.6793095,43.0
-10.297209,2.9900427,1.6035924,92.0
-12.459978,2.0033193,1.4013679,1.0
-11.222894,2.6730099,1.158798,1.0
-10.367806,2.7068045,1.3713458,127.0
-11.388113,3.6158407,1.0644072,1.0
-10.335814,3.1232455,1.3219829,39.0
-12.315707,2.7112546,0.83080983,1.0
-10.296782,2.9198549,1.6005731,64.0
-12.731373,1.9645472,1.4333512,1.0
-11.253027,2.6055562,1.1603626,1.0
-10.696304,2.3155303,1.4589175,1.0
-10.373098,2.6386576,1.3696706,120.0
-11.530394,3.5811994,1.077029,1.0
-10.282965,3.037047,1.3117915,135.0
-12.344204,2.6362998,0.8317293,1.0
-10.506358,2.3121877,1.7071085,1.0
-10.303498,2.851915,1.5987614,101.0
-13.004725,1.9227294,1.4655766,1.0
-10.799769,2.266814,1.4722117,1.0
-10.379866,2.5710306,1.3682748,72.0
-10.338045,2.9827483,1.3168873,62.0
-12.391779,2.5651045,0.83418113,1.0
-10.58442,2.2596118,1.7176529,1.0
-10.296413,2.7803726,1.5948364,103.0
-13.3252325,1.884152,1.5036172,1.0
-11.032359,2.4092748,1.1313043,1.0
-10.928262,2.2219684,1.4892632,1.0
-10.374647,2.5006168,1.3652037,62.0
-10.331769,2.910794,1.3134007,98.0
-12.454592,2.4965258,0.8378588,1.0
-10.716389,2.2172456,1.7371442,1.0
-10.307946,2.7141027,1.5939305,98.0
-13.612303,1.8371569,1.5375388,1.0
-11.142588,2.3599172,1.1422571,1.0
-11.077979,2.179761,1.5094936,1.0
-10.342206,2.843733,1.312328,103.0
-12.575777,2.4385533,0.8461337,1.0
-10.850175,2.1736934,1.756955,1.0
-10.29417,2.6413622,1.5890996,119.0
-14.243025,1.8530461,1.6141046,1.0
-11.2548275,2.328139,1.1538804,1.0
-10.469045,2.4020214,1.3749752,80.0
-12.473173,3.5524864,1.1671845,1.0
-10.342091,2.7913756,1.3104506,97.0
-12.673369,2.3954241,0.8528762,1.0
-10.994043,2.1484234,1.7790025,1.0
-10.296921,2.5903928,1.58759,72.0
-12.216663,2.445417,1.2625136,1.0
-10.35559,2.725338,1.3099142,83.0
-11.366348,2.146449,1.8381153,90.0
-10.305316,2.5237486,1.5863823,149.0
-11.728212,2.2719483,1.2048441,1.0
-10.693825,2.312925,1.4031726,15.0
-11.527395,3.5794637,0.98378056,16.0
-10.366747,2.6587524,1.3091097,69.0
-11.579729,2.1111171,1.8710269,87.0
-10.336349,2.4626443,1.5887977,89.0
-10.824396,2.270294,1.4199235,1.0
-11.669643,3.5436182,0.99544495,1.0
-10.390943,2.5954707,1.3101825,57.0
-12.303626,2.2224197,1.2674311,1.0
-10.964549,2.2281017,1.4380704,1.0
-10.434019,2.5366354,1.3139371,26.0
-12.055137,2.0408154,1.944838,4.0
-12.215502,2.1275048,1.2558079,1.0
-11.234067,2.3753939,1.0741109,1.0
-12.406465,1.9763476,1.6953248,1.0
-11.110421,2.185394,1.4570549,1.0
-10.445892,2.470122,1.3134007,1.0
-12.3328085,2.0077434,1.9882939,1.0
-10.510288,2.2958965,1.6090271,1.0
-12.384162,2.0965312,1.2739134,1.0
-11.361963,2.3467722,1.0867146,1.0
-11.272251,2.1623845,1.4788312,1.0
-12.381903,3.5286062,1.0585805,1.0
-10.509573,2.4328396,1.3206419,1.0
-10.638886,2.2717478,1.6274451,1.0
-12.585457,2.049038,1.2953718,1.0
-11.454971,2.123213,1.5031201,1.0
-10.5846195,2.3801253,1.3289559,1.0
-10.767133,2.2287126,1.6452591,1.0
-12.829845,2.0057826,1.3217478,1.0
-13.369713,1.8920082,1.8326029,1.0
-11.680512,2.0895758,1.533551,1.0
-10.702034,2.3357818,1.3431702,1.0
-10.881688,2.1814094,1.6609596,1.0
-10.454653,2.5359364,2.066929,1.0
-13.032894,1.953413,1.3434297,1.0
-13.679498,1.8477947,1.8765318,1.0
-11.906075,2.0531864,1.5639819,1.0
-10.827063,2.2916837,1.3584571,1.0
-11.149348,2.1627717,1.7005128,1.0
-13.318429,1.9102964,1.3744997,1.0
-12.252859,2.212802,1.1764114,1.0
-14.085439,1.8119965,1.9346222,1.0
-12.157022,2.0183022,1.5980422,1.0
-10.977205,2.2512357,1.3772306,1.0
-11.469644,2.1507845,1.7482182,1.0
-13.741789,1.882346,1.4212165,1.0
-12.392352,1.9778216,1.6298691,1.0
-11.311932,2.412348,1.0259409,1.0
-11.119483,2.2074609,1.3949313,1.0
-11.552945,2.091477,1.7590877,13.0
-12.653939,1.9588861,1.6658837,1.0
-11.391382,2.3731005,1.032953,1.0
-11.244604,2.1770601,1.4107547,1.0
-10.612103,2.4483755,1.2576131,1.0
-11.856594,2.0893176,1.8046795,1.0
-12.955856,1.92282,1.7072027,1.0
-11.607053,2.3416686,1.0535886,1.0
-11.462682,2.1442742,1.4389149,1.0
-10.69887,2.3978345,1.2670254,1.0
-12.07994,2.0508687,1.8372883,1.0
-10.944518,2.3104591,2.1505044,22.0
-13.281332,1.8864131,1.751872,1.0
-11.667127,2.1063907,1.4651978,1.0
-10.835795,2.357356,1.2830517,1.0
-12.307163,2.010338,1.8705009,1.0
-10.9415045,2.2381387,2.147054,23.0
-10.234035,2.6750915,1.9345045,1.0
-13.243573,1.9871947,1.275771,1.0
-13.624509,1.8484125,1.7990539,1.0
-11.43487,2.586955,0.9515648,1.0
-12.542157,1.9682701,1.9049212,1.0
-10.974614,2.1731253,2.1508877,24.0
-10.262068,2.6136703,1.9367001,1.0
-14.058048,1.8179855,1.8590782,49.0
-12.2405405,2.2291844,1.114093,1.0
-11.443122,2.5133348,0.9508242,1.0
-12.859192,1.9358168,1.9520227,1.0
-11.198263,2.1439853,2.1926756,41.0
-10.274472,2.5481868,1.9359683,1.0
-14.340401,1.7633573,1.8976054,61.0
-12.269989,2.1549594,1.1156957,1.0
-11.445059,2.438458,0.94952816,1.0
-12.352601,1.9893633,1.5539696,1.0
-11.209005,2.2187726,1.3262974,1.0
-13.262384,1.9119989,2.0124092,1.0
-10.276817,2.4974015,1.9341387,1.0
-12.585128,1.9656411,1.5845436,1.0
-13.541415,1.887549,2.054076,1.0
-10.31717,2.4387093,1.9388957,1.0
-12.906996,1.9324124,1.626918,1.0
-13.7176,1.8245677,2.0794382,1.0
-10.403162,2.3902628,1.952435,1.0
-13.213233,1.89299,1.6671469,1.0
-14.046483,1.7790425,2.1283514,1.0
-10.48703,2.3403995,1.9656085,1.0
-13.289542,2.0108836,1.2146664,1.0
-12.232939,2.307777,1.0189588,1.0
-13.55286,1.8543118,1.711935,1.0
-10.599494,2.2958739,1.9842709,1.0
-12.235446,2.2287095,1.0178479,1.0
-14.047799,1.8314574,1.7779105,1.0
-10.721426,2.2520652,2.004763,1.0
-13.169839,1.8240191,1.2000412,1.0
-14.293128,1.7718413,1.8098254,31.0
-12.399897,1.9941114,1.4715521,1.0
-10.872473,2.2306216,2.0314758,1.0
-11.183164,2.2217994,2.0878289,1.0
-11.293416,2.1702135,2.1061254,34.0
-13.202106,1.891002,1.5712717,1.0
-13.520272,1.8504344,1.610956,1.0
-13.834504,1.8054224,1.6501315,1.0
-14.294345,1.7748268,1.7081317,1.0
