x,y,z,intensity
-35.46017,6.396457,1.7819383,1.0
-34.111008,5.5822573,0.496345,1.0
-34.824974,6.112959,1.7459688,1.0
-33.378498,5.301458,0.48225567,1.0
-34.200974,5.7825456,1.7102122,1.0
-32.65395,4.9767056,0.46820304,1.0
-33.615623,5.4669275,1.6766905,1.0
-33.38001,5.30622,-0.63943934,1.0
-32.00978,4.6733527,0.45569143,25.0
-33.02965,5.159204,1.643275,1.0
-32.58626,4.9708395,-0.6270345,1.0
-31.786972,4.437188,0.45103168,30.0
-32.451042,4.860537,1.6103917,1.0
-36.389027,6.893379,1.6275063,1.0
-32.03702,4.6816373,-0.6183392,1.0
-31.23935,4.1611805,0.4403913,1.0
-31.91746,4.576121,1.5800624,1.0
-35.761585,6.541652,1.5950323,1.0
-32.246048,4.50532,-0.6210398,1.0
-31.05458,3.9382865,0.43650204,1.0
-31.329311,4.341617,1.5472856,1.0
-35.084038,6.246588,1.560749,1.0
-31.311007,3.8208146,0.44090497,65.0
-33.33998,5.3361425,0.2918677,27.0
-31.005491,4.098587,1.5284494,1.0
-34.417774,5.904686,1.5266562,1.0
-29.719313,3.4382691,0.4110752,57.0
-32.635628,5.0128546,0.282374,96.0
-30.933527,3.8915427,1.523235,1.0
-33.926003,5.600798,1.5011342,1.0
-32.013626,4.7112064,0.27397475,49.0
-29.759499,3.554842,1.4589583,1.0
-33.30356,5.2829056,1.469422,1.0
-33.241356,5.159374,-0.83617175,1.0
-29.990929,3.0881472,0.41533136,43.0
-32.272293,4.5424438,0.2769272,70.0
-32.723904,4.980001,1.4399003,1.0
-36.334248,6.83969,1.452644,1.0
-32.54733,4.8419805,-0.8209384,47.0
-30.079409,2.9063332,0.41661555,78.0
-31.396465,4.217591,0.26532096,65.0
-29.444332,3.142695,1.4398029,20.0
-32.17934,4.69009,1.4121879,1.0
-35.67459,6.4840913,1.4219549,1.0
-31.983278,4.5524783,-0.8084861,100.0
-30.156826,2.7226365,0.41771626,38.0
-31.02366,3.9689705,0.26020503,113.0
-29.856216,3.0441546,1.4610866,20.0
-31.637352,4.4585857,1.385047,1.0
-35.073086,6.2045364,1.3943604,1.0
-31.230564,3.8460748,0.262623,46.0
-33.118603,5.287318,0.16316997,1.0
-28.41937,2.7183409,1.3831882,15.0
-31.110416,4.184786,1.3583821,1.0
-34.522366,5.884005,1.3686572,1.0
-30.014767,2.7614434,-0.5851606,31.0
-29.800222,3.4790385,0.24399193,92.0
-32.528404,4.984097,0.15751562,1.0
-31.070711,3.9808116,1.3552395,1.0
-33.813236,5.54519,1.3361629,1.0
-30.19691,2.5868578,-0.5876238,1.0
-31.9476,4.69024,0.15196897,1.0
-33.229553,5.2356596,1.3092562,1.0
-30.121912,3.5644584,-0.767518,41.0
-29.966892,3.1174138,0.24559543,63.0
-31.875423,4.475299,0.1510535,1.0
-29.62203,3.416457,1.283435,1.0
-32.64729,4.934282,1.2825214,1.0
-29.662859,3.320961,-0.7574731,36.0
-30.045595,2.934939,0.24635899,63.0
-31.379568,4.2051415,0.1463146,1.0
-29.422483,3.2060974,1.2728642,1.0
-32.05862,4.639861,1.2556146,1.0
-30.163013,2.755263,0.24763161,110.0
-31.002619,3.956761,0.14267069,1.0
-29.912119,3.1172223,1.2956246,1.0
-31.559639,4.4162426,1.2330061,1.0
-30.409157,1.8844965,-0.58999795,42.0
-29.168415,2.940883,-0.74643207,26.0
-31.247229,3.8382714,0.14471704,1.0
-33.21946,5.3514495,-0.060629662,1.0
-28.565289,2.794619,1.2302005,1.0
-31.026215,4.143374,1.2086784,1.0
-29.804586,3.4720743,0.1314697,1.0
-32.58246,5.0385933,-0.062185563,58.0
-28.3376,2.5925226,1.218487,1.0
-31.000093,3.9418304,1.2064432,1.0
-34.095383,5.66208,1.1272206,1.0
-31.99232,4.7413177,-0.06362672,50.0
-33.455353,5.3396044,1.1021994,40.0
-28.763235,3.0501459,2.0844524,35.0
-30.4909,2.0623999,0.25109312,44.0
-33.57781,5.249739,-1.1988958,35.0
-29.987108,3.1118357,0.13274416,1.0
-31.896736,4.522445,-0.06391587,38.0
-29.554197,3.3821495,1.1417984,1.0
-32.86005,5.03269,1.0789342,31.0
-28.375025,2.829095,2.0530386,1.0
-32.98152,4.944039,-1.1790504,23.0
-30.063797,2.9289458,0.13326472,1.0
-31.538082,4.2693796,-0.06481085,30.0
-29.413939,3.1791084,1.1348352,1.0
-32.285965,4.736968,1.0565468,92.0
-32.406487,4.649464,-1.1599541,23.0
-30.155304,2.7466555,0.1339289,1.0
-31.016867,4.0001755,-0.066077605,49.0
-30.020931,3.1012504,1.1604525,1.0
-31.740055,4.503824,1.0355495,37.0
-30.395359,3.871515,2.026053,39.0
-28.838076,2.901261,-0.8553558,1.0
-31.849905,4.416167,-1.1417314,1.0
-31.059187,3.8569415,-0.06602253,83.0
-33.094532,5.3955564,-0.24934132,1.0
-28.54612,2.7687547,1.0958936,1.0
-31.215197,4.229087,1.0151376,59.0
-29.765543,3.600947,1.9795514,18.0
-31.310286,4.140642,-1.123883,23.0
-29.771976,3.5064294,-0.06905171,57.0
-32.52507,5.093508,-0.24731304,54.0
-28.129107,2.5503209,1.0771534,1.0
-30.97754,3.9986715,1.0054071,63.0
-34.125378,5.668498,0.96105814,1.0
-30.78435,3.874083,-1.106534,30.0
-29.586716,3.2961276,-0.069529034,29.0
-31.933361,4.795874,-0.24521825,49.0
-30.742197,3.7719004,0.9958229,73.0
-29.04884,3.1438828,1.9255815,52.0
-33.538452,5.3550606,0.9410539,1.0
-31.84161,4.6053476,1.9622095,1.0
-31.80448,4.572469,-0.24468623,35.0
-29.681414,3.4518685,0.9558769,37.0
-28.557974,2.908983,1.8893666,49.0
-32.90549,5.0425916,0.91965264,36.0
-31.417156,4.3429003,1.9323733,31.0
-31.51355,4.32893,-0.24361555,30.0
-28.099083,2.6836264,1.8555473,50.0
-32.339176,4.7484126,0.900474,37.0
-30.897675,4.0737705,1.8964136,1.0
-30.113556,2.7816088,-0.068445876,61.0
-30.982378,4.107662,-0.24176683,51.0
-29.59832,3.1126785,0.9514872,40.0
-31.77334,4.512851,0.8816129,34.0
-30.415588,3.864809,1.8634505,1.0
-30.19008,2.6453009,-0.068299,69.0
-31.02742,3.9154055,-0.24183331,76.0
-30.01904,2.9666226,0.9662658,78.0
-31.254305,4.2393217,0.86408544,63.0
-29.821033,3.5994298,1.8228004,1.0
-33.282604,5.300262,1.8697819,1.0
-29.768492,3.5675137,-0.23753734,58.0
-32.776993,5.2023187,-0.4020823,1.0
-30.136587,2.7872202,0.96992385,43.0
-31.03051,4.010739,0.85608375,57.0
-32.731133,5.0014157,1.8345746,1.0
-32.16652,4.8980265,-0.39690724,1.0
-30.898342,3.7965338,0.8510668,65.0
-33.644566,5.4106827,0.71367705,1.0
-29.312256,3.165229,1.7865801,108.0
-32.163414,4.7076797,1.7985346,1.0
-31.737576,4.628573,-0.39321306,1.0
-29.714273,3.462469,0.8124556,49.0
-33.017982,5.096902,0.6969892,1.0
-31.573553,4.4184995,1.7613053,43.0
-30.410698,1.8961005,-0.06792265,67.0
-31.710573,4.421302,-0.39276722,1.0
-32.398705,4.7926817,0.68055123,43.0
-28.109901,2.6793652,1.7052798,42.0
-31.072372,4.149135,1.7295474,46.0
-30.09514,2.889097,-0.23837525,43.0
-31.184055,4.197827,-0.38837242,1.0
-29.629272,3.1228426,0.80858177,37.0
-31.86284,4.559729,0.66646147,29.0
-30.820326,3.9675648,1.7132521,94.0
-30.192383,2.7070384,-0.23864126,76.0
-31.007496,3.975735,-0.38674825,1.0
-29.990484,2.970272,0.8195047,58.0
-31.373878,4.2884364,0.653421,71.0
-31.254194,3.8080668,-0.38853166,38.0
-30.173773,2.796982,0.82477564,66.0
-30.979923,4.036191,0.64282876,61.0
-29.570858,3.4286916,1.635463,28.0
-29.692207,3.4275248,-0.37582493,19.0
-30.94515,3.834046,0.6413298,72.0
-29.383451,3.2198482,1.6229739,1.0
-29.773325,3.4982708,0.6112518,75.0
-30.000818,3.0972795,1.6587759,126.0
-30.374624,1.9553293,-0.23905356,36.0
-28.243286,2.7353878,1.5524403,48.0
-29.410398,3.127915,0.6012091,53.0
-29.94868,2.9953473,0.6142496,114.0
-30.130135,2.8225174,0.61834663,42.0
-30.039722,2.623683,0.61564857,42.0
-30.361418,2.062113,-0.3801401,28.0
