x,y,z,intensity
9.199409,-16.197514,3.212027,1.0
9.220174,-15.999496,3.1838727,1.0
9.250773,-15.822262,3.1598384,1.0
9.297237,-15.45338,3.1086798,1.0
9.334513,-15.297176,3.0887656,1.0
9.352616,-15.165874,3.0709114,1.0
9.374456,-14.989957,3.0468771,1.0
9.1948595,-16.622507,3.1768405,1.0
9.399743,-14.822683,3.0245597,1.0
9.206622,-16.399225,3.1448414,1.0
9.427571,-14.6623125,3.0036156,1.0
9.253943,-16.243328,3.1258419,1.0
9.461303,-14.513725,2.9850748,1.0
9.278,-16.049902,3.0995092,58.0
9.498982,-14.37351,2.9682508,1.0
9.297007,-15.851713,3.0721767,16.0
9.518798,-14.208862,2.9462767,1.0
9.324964,-15.67258,3.0485106,1.0
9.528125,-14.079066,2.9284225,1.0
9.32669,-15.508395,3.0248446,30.0
9.540477,-13.908527,2.9050748,1.0
9.352195,-15.33156,3.0015118,36.0
9.585992,-13.788502,2.8923712,1.0
9.379991,-15.161734,2.9795125,11.0
9.617871,-13.650753,2.8758905,1.0
9.41544,-15.007213,2.960513,50.0
9.626611,-13.482711,2.8528862,1.0
9.43347,-14.827872,2.9365137,39.0
9.211305,-16.471527,3.0203722,1.0
9.808316,-13.55593,2.8817275,1.0
9.473097,-14.685388,2.9198475,10.0
9.255062,-16.30865,3.000881,1.0
9.839483,-13.465055,2.8721137,1.0
9.46803,-14.526503,2.896848,38.0
9.230421,-16.08858,2.9679694,1.0
9.732467,-13.14509,2.816148,1.0
9.511365,-14.394279,2.882182,19.0
9.735518,-12.978179,2.7931437,1.0
9.523834,-14.217813,2.8585157,7.0
9.27898,-15.713086,2.9194012,1.0
10.043176,-14.589617,2.0228596,1.0
9.787016,-12.877573,2.7845602,1.0
9.566534,-14.089115,2.844516,1.0
9.342965,-15.596928,2.9085371,68.0
9.818371,-12.751881,2.770483,1.0
9.593486,-13.939309,2.8261833,1.0
9.358613,-15.403027,2.8829749,64.0
10.161428,-14.371559,2.009291,133.0
9.8448925,-12.621648,2.7553756,1.0
9.63245,-13.809149,2.8118503,1.0
9.302674,-15.097013,2.836004,90.0
10.327268,-14.460727,2.0298862,67.0
9.841986,-12.496253,2.737865,1.0
9.640723,-13.682931,2.7951841,1.0
9.402989,-15.0999,2.844951,65.0
10.485537,-14.488758,2.0439394,53.0
9.845231,-12.340313,2.7169209,188.0
9.6498575,-13.514465,2.7728515,1.0
9.426923,-14.928758,2.8235424,141.0
10.652793,-14.526564,2.0596888,63.0
10.0379305,-12.420579,2.748852,214.0
9.688418,-13.389605,2.7595184,1.0
9.45548,-14.767883,2.8040512,37.0
9.275008,-16.406063,2.8442338,1.0
10.798404,-14.532585,2.0708344,58.0
10.090773,-12.326803,2.741985,55.0
9.689706,-13.215449,2.7358525,1.0
9.491004,-14.620481,2.787116,56.0
9.258111,-16.138111,2.807398,1.0
10.174322,-12.270734,2.743702,166.0
9.744371,-13.11628,2.7278526,1.0
9.527227,-14.476514,2.7708201,66.0
9.298771,-15.975327,2.78898,1.0
9.807647,-13.029563,2.7225194,1.0
9.552139,-14.3179035,2.7516484,70.0
9.336751,-15.810967,2.7702603,20.0
9.815325,-12.912486,2.7075198,25.0
9.564237,-14.190938,2.735672,100.0
9.355525,-15.673361,2.753654,14.0
10.532653,-12.264824,2.783187,5.0
9.844607,-12.783311,2.693187,62.0
9.586274,-14.03283,2.7165003,62.0
9.398625,-15.522881,2.7373495,1.0
10.689791,-12.290477,2.8044744,1.0
9.895667,-12.683851,2.685187,59.0
9.6326,-13.9123125,2.7046778,75.0
9.4092245,-15.321903,2.7119873,40.0
10.846358,-12.313158,2.8254185,11.0
9.9141245,-12.54399,2.668521,159.0
9.653935,-13.757859,2.686145,75.0
9.444798,-15.165076,2.6944752,11.0
10.02843,-12.526139,2.6781874,191.0
9.702366,-13.643881,2.6756005,102.0
9.468237,-14.991682,2.6739438,41.0
10.090814,-12.44295,2.673854,129.0
9.713904,-13.480227,2.6551507,58.0
9.494129,-14.825262,2.65462,32.0
9.724953,-13.362533,2.6407719,74.0
9.510279,-14.697301,2.6395235,7.0
9.970979,-13.424995,2.3028164,1.0
10.247129,-12.355558,2.6791873,28.0
9.77116,-13.250364,2.630547,78.0
9.553721,-14.56281,2.6259365,1.0
10.018185,-13.313106,2.2938573,1.0
10.330892,-12.298488,2.6808538,25.0
9.809241,-13.128664,2.6184049,85.0
9.594758,-14.426709,2.6120474,1.0
9.74349,-14.952746,2.2759442,1.0
10.446239,-12.278442,2.6908536,37.0
9.834246,-12.991284,2.6030676,80.0
9.622328,-14.272623,2.5948374,1.0
10.977284,-15.366365,2.522975,1.0
10.609302,-12.312767,2.7131863,26.0
9.881981,-12.885414,2.5941207,87.0
9.671727,-14.153071,2.5839677,1.0
11.056249,-14.555282,1.9169954,1.0
11.008681,-15.207185,2.5073407,1.0
10.714939,-12.278588,2.7205195,99.0
9.905725,-12.749866,2.5791028,88.0
9.687416,-13.986292,2.5643423,1.0
9.640945,-13.312299,3.3330615,1.0
10.895046,-12.367204,2.751852,183.0
9.937623,-12.667353,2.5717537,100.0
9.695514,-13.857799,2.5489435,1.0
9.68856,-13.246141,3.3278434,1.0
9.983956,-13.473504,2.2248077,1.0
9.98257,-12.561428,2.5628068,104.0
9.735587,-13.730426,2.5365644,1.0
9.729668,-13.128284,3.3133934,1.0
9.199962,-15.970712,3.3960266,1.0
10.036498,-12.467731,2.5564163,140.0
9.775596,-13.604706,2.524487,1.0
9.737967,-12.968094,3.2881057,1.0
10.119636,-12.410539,2.5576944,45.0
9.837647,-13.511022,2.5184484,35.0
9.802673,-12.884802,3.2824862,1.0
9.281815,-15.6541395,3.3528469,1.0
9.969669,-13.968495,2.1831496,1.0
10.20119,-12.351273,2.558653,33.0
9.832114,-13.32633,2.4951997,8.0
9.904932,-12.850916,3.2897112,1.0
9.996742,-13.822142,2.1692038,1.0
10.315387,-12.330802,2.5679193,103.0
9.88256,-13.219912,2.4867456,10.0
9.565786,-13.936665,3.2672706,1.0
9.340215,-15.364512,3.3122287,1.0
10.032493,-13.734904,2.1624987,39.0
10.398895,-12.312189,2.5743098,56.0
9.899555,-13.113177,2.475272,22.0
9.575684,-13.765195,3.2408178,73.0
9.343866,-15.154786,3.279295,1.0
10.135126,-13.69388,2.1662536,1.0
9.891291,-14.447019,2.1062465,1.0
9.944578,-13.00199,2.465912,23.0
9.613265,-13.635833,3.2243328,40.0
9.385835,-15.010692,3.2606328,1.0
10.24955,-13.667951,2.1726902,1.0
9.988595,-12.890756,2.4565523,44.0
9.605021,-13.444308,3.1928961,133.0
11.191921,-13.661599,2.35044,1.0
10.377255,-13.658466,2.182077,1.0
10.088002,-14.344319,2.109808,97.0
10.709962,-12.205907,2.5941207,1.0
10.0437975,-12.795052,2.4502115,39.0
9.708906,-13.410699,3.1994135,37.0
10.522196,-13.669882,2.1952183,1.0
10.253796,-14.38736,2.1265974,40.0
10.088364,-12.68677,2.4414556,12.0
11.246032,-13.551764,3.573495,1.0
9.706914,-13.232416,3.1710439,48.0
10.665246,-13.676889,2.2078235,1.0
10.357906,-14.341964,2.12965,155.0
11.18916,-12.432436,2.6730444,1.0
10.197596,-12.660124,2.4487019,1.0
11.284377,-13.425287,3.5586433,1.0
9.691914,-13.082525,3.1457412,50.0
10.825357,-13.747824,2.2287424,1.0
10.532757,-14.440567,2.1530538,47.0
11.336693,-12.477366,2.6944528,1.0
10.258388,-12.613463,2.449004,1.0
11.303206,-13.319624,3.5445948,1.0
9.721988,-12.952362,3.1288729,32.0
9.488464,-14.211682,3.1460967,1.0
10.688028,-14.461921,2.1670449,158.0
11.410905,-13.276602,3.5522213,1.0
9.755571,-12.828584,3.1135378,1.0
9.523665,-14.07193,3.1281662,1.0
9.798785,-12.718878,3.1016533,77.0
9.548606,-13.919317,3.1073081,1.0
11.00779,-14.509957,2.1965537,88.0
9.839796,-12.607592,3.0893853,54.0
9.576488,-13.773414,3.087914,1.0
9.899308,-12.5209055,3.0832515,94.0
9.604047,-13.629321,3.0688856,1.0
9.939684,-12.411013,3.0713668,132.0
9.640442,-13.499843,3.0531507,1.0
11.269655,-12.838094,2.57491,1.0
9.998059,-12.364036,3.0713668,182.0
9.649983,-13.379246,3.035952,1.0
10.090496,-12.319176,3.0759673,90.0
9.68521,-13.2516165,3.020583,1.0
10.187784,-12.279677,3.0821013,65.0
9.75543,-13.173103,3.0165577,1.0
10.277385,-12.230435,3.0859349,44.0
10.402445,-12.222362,3.1005032,51.0
9.751499,-12.826995,2.9645958,1.0
9.81034,-12.737405,2.958009,1.0
10.649766,-12.237405,3.13424,42.0
9.837715,-12.649086,2.948129,1.0
10.805729,-12.259977,3.1576257,21.0
9.876905,-12.536006,2.9360533,1.0
10.97679,-12.29716,3.1852286,17.0
9.9358835,-12.449087,2.9301984,1.0
11.165879,-12.351583,3.2178154,7.0
9.97688,-12.340494,2.9192204,40.0
10.060439,-12.285178,2.9210503,94.0
10.215078,-12.197963,2.9269052,25.0
10.344855,-12.196587,2.942274,1.0
10.469899,-12.188086,2.9561794,1.0
10.605553,-12.190373,2.9730122,1.0
10.741645,-12.191435,2.989845,1.0
10.909542,-12.226514,3.01546,1.0
11.069541,-12.289047,3.0440025,1.0
