x,y,z,intensity
-5.419122,9.0511,1.804305,1
-5.364053,8.833523,1.76688,1
-5.481641,8.900183,1.787481,106
-5.500808,8.807147,1.775464,87
-5.527483,8.727525,1.766193,90
-5.560853,8.659507,1.759326,98
-5.574705,8.591937,1.750743,90
-5.616632,8.538657,1.746966,92
-5.641665,8.460634,1.738039,91
-5.668154,8.385896,1.729799,91
-5.377646,8.92025,1.726546,141
-5.707329,8.330638,1.725678,94
-5.475631,8.955347,1.740212,155
-5.73078,8.280999,1.720871,95
-5.491937,8.887455,1.731879,97
-5.757736,8.209391,1.713318,94
-5.514264,8.799234,1.721213,125
-5.788598,8.144187,1.707138,97
-5.549408,8.732751,1.71488,80
-5.830416,8.094884,1.704391,103
-5.569028,8.642937,1.70388,35
-5.857866,8.026308,1.697524,86
-5.596342,8.566448,1.695547,78
-6.237134,9.322346,1.230064,84
-5.905832,7.98618,1.696837,99
-5.57189,8.412582,1.671548,158
-5.913845,7.918855,1.688254,75
-5.678167,8.486343,1.69188,131
-5.959908,7.876835,1.687223,114
-5.71151,8.421082,1.685881,142
-6.723091,9.680612,1.299603,1
-6.000867,7.828304,1.68482,104
-5.745372,8.357366,1.680214,145
-5.48712,9.073681,1.682185,50
-6.775764,9.626828,1.297907,1
-6.048724,7.788891,1.684477,94
-5.78428,8.301659,1.676214,132
-5.499498,8.966743,1.668445,146
-5.694639,9.089898,1.427127,35
-6.10365,7.758462,1.686193,89
-5.82158,8.244181,1.671881,139
-5.530625,8.891826,1.660777,80
-5.698423,8.970517,1.412676,26
-6.169513,7.741496,1.691,73
-5.851522,8.176926,1.665548,134
-5.54518,8.791854,1.648315,193
-6.908231,9.463479,1.291123,1
-5.706322,8.890335,1.403428,70
-6.245553,7.761377,1.701987,74
-5.875014,8.128452,1.661215,136
-5.56952,8.73902,1.643203,200
-6.972289,9.426263,1.292092,61
-5.741499,8.82283,1.397937,76
-6.35285,7.793643,1.718125,76
-5.910865,8.070664,1.656881,137
-5.585626,8.644233,1.6317,130
-7.012284,9.356884,1.288215,70
-6.717165,9.614182,1.226449,1
-5.758565,8.728839,1.387822,50
-6.46457,7.829414,1.735292,98
-5.940362,8.004819,1.650882,37
-5.623551,8.584227,1.626907,186
-7.06853,9.309482,1.287731,29
-5.795643,8.666199,1.383198,60
-6.555447,7.838435,1.746622,67
-5.969266,7.938921,1.644882,43
-5.636843,8.487952,1.615084,254
-5.834388,8.606709,1.379152,53
-5.883165,7.722148,1.606883,149
-5.742035,8.529239,1.630102,254
-5.872616,8.547077,1.375106,98
-6.860456,7.995789,1.801901,1
-6.075766,7.872666,1.646882,199
-5.777655,8.466935,1.62499,254
-5.399644,8.895674,1.555283,179
-6.935943,9.445241,1.225293,1
-5.890196,8.486836,1.369325,54
-5.85261,9.112626,1.387538,85
-6.992441,8.071906,1.826966,1
-6.087408,7.811231,1.639882,46
-5.795016,8.407148,1.618599,254
-5.536313,9.025357,1.583061,209
-6.989236,9.393497,1.224137,1
-6.39327,9.370878,1.137116,48
-5.935411,8.438345,1.367302,61
-5.882812,9.034134,1.380559,82
-7.069065,8.057384,1.833833,1
-6.118085,7.749574,1.634882,160
-6.695762,8.114431,2.293756,50
-5.823913,8.336631,1.611889,254
-5.522116,8.876102,1.56253,157
-6.7145,8.318559,1.165855,1
-5.982554,8.392839,1.365857,108
-5.906819,8.947349,1.372183,90
-7.28611,8.199552,1.877438,52
-6.223166,7.781941,1.650215,91
-6.724124,8.045187,2.285978,82
-5.830417,8.235511,1.599108,210
-5.552536,8.801051,1.555283,140
-6.790565,8.305363,1.170459,1
-6.015416,8.32785,1.360944,46
-5.931068,8.862268,1.364087,80
-7.449745,8.277891,1.906622,56
-6.323941,7.807152,1.664214,119
-6.772023,7.999794,2.285114,57
-5.85204,8.157067,1.5908,202
-5.580109,8.722634,1.547433,127
-5.655652,8.44395,2.047807,1
-6.86546,8.290011,1.17482,185
-6.069966,8.29308,1.361522,66
-5.966678,8.795289,1.359062,80
-7.634596,8.376302,1.940957,51
-6.434011,7.84209,1.680547,85
-5.891535,8.104192,1.587605,203
-5.614425,8.655846,1.541696,113
-5.708595,8.408248,2.047807,160
-6.094825,8.245315,1.358054,73
-5.976799,8.721273,1.351245,76
-7.818347,8.496565,1.978038,44
-6.518582,7.869489,1.693214,132
-5.909741,8.049324,1.582173,203
-5.640026,8.606112,1.537469,136
-5.728265,8.35213,2.040581,119
-7.426822,8.767622,1.263501,56
-6.142942,8.202112,1.357187,77
-6.015706,8.660746,1.347336,78
-8.045182,8.632917,2.02233,5
-6.648826,7.925225,1.714547,63
-5.951928,8.000962,1.579936,203
-5.677626,8.545771,1.53294,142
-5.766134,8.29503,2.035363,111
-6.189559,8.157057,1.356031,77
-6.039309,8.578994,1.339798,64
-5.995798,9.245375,1.352021,36
-5.992549,7.950814,1.57738,65
-5.700376,8.463952,1.524486,143
-5.79226,8.221745,2.026131,109
-7.435943,8.55839,1.244844,1
-6.801362,8.372173,1.116838,1
-6.244317,8.122705,1.356898,81
-6.091945,8.539264,1.339519,53
-8.886724,9.296218,2.207051,1
-6.936549,8.061147,1.763545,28
-6.020762,7.884804,1.571628,51
-5.720101,8.378916,1.515428,144
-5.818829,8.150056,2.017301,106
-6.8362,8.307765,1.1136,141
-6.55223,9.342155,1.066549,96
-6.292791,8.080194,1.35632,80
-6.117707,8.462247,1.332819,61
-6.217319,9.327428,1.377767,1
-8.851618,9.144081,2.183703,1
-7.003868,8.036763,1.767878,1
-6.05565,7.82811,1.567794,99
-5.7502,8.310248,1.509389,150
-5.857324,8.095848,2.012885,106
-6.978364,8.373167,1.130019,55
-6.563674,9.23425,1.057936,84
-6.364326,8.066867,1.361233,112
-6.155582,8.402843,1.329189,40
-8.867452,9.04614,2.173403,1
-7.209177,8.168839,1.807544,120
-6.102273,7.786804,1.567155,149
-5.775135,8.235051,1.502143,151
-5.888437,8.031982,2.006062,109
-6.56662,9.146595,1.050584,106
-6.398561,8.03215,1.360366,104
-6.185713,8.360987,1.326956,1
-8.953013,9.0476,2.184047,1
-7.373263,8.276362,1.839543,82
-6.158553,7.782692,1.572267,42
-5.796785,8.183511,1.497614,151
-5.922733,7.999414,2.004858,109
-6.605286,9.079388,1.047223,85
-6.483786,8.034842,1.368458,120
-6.23457,8.317195,1.326118,1
-6.704277,9.689065,1.455275,1
-9.06975,9.05092,2.19881,1
-7.523993,8.339867,1.864542,117
-6.235805,7.779217,1.579616,179
-5.822796,8.111541,1.490971,153
-6.643868,7.949757,2.181594,40
-5.949427,7.930648,1.99683,111
-7.38881,8.561642,1.177656,1
-5.571636,8.469159,1.945783,1
-6.63748,9.004042,1.042812,82
-6.58436,8.055138,1.380019,78
-6.246085,8.224155,1.316626,1
-6.812934,9.714821,1.466539,1
-9.133467,9.000658,2.200527,1
-7.694394,8.422215,1.894208,70
-6.336959,7.804149,1.593037,192
-5.857411,8.052379,1.486744,158
-6.693687,7.907856,2.181594,17
-6.002686,7.897798,1.998034,114
-8.355379,8.940242,1.354605,1
-5.620369,8.427461,1.94425,165
-6.670177,8.930246,1.03861,86
-6.676589,8.063829,1.389556,101
-6.318114,8.211472,1.321372,1
-6.162574,8.674663,1.300796,1
-6.123392,9.299982,1.288903,30
-7.876814,8.514347,1.926541,73
-6.439929,7.829637,1.606776,184
-5.896192,7.999478,1.483725,160
-6.810861,7.944205,2.203764,1
-6.041461,7.845932,1.994421,118
-5.663286,8.377365,1.940799,180
-5.388789,8.974141,1.914012,1
-6.844685,8.404705,1.080341,1
-6.705801,8.861161,1.035039,92
-6.787029,8.092874,1.403139,105
-8.087606,8.633343,1.96554,72
-6.554868,7.867765,1.623392,181
-5.940438,7.954341,1.482215,167
-6.971162,8.028041,2.239737,42
-6.109869,7.832575,2.000844,121
-9.285813,9.685989,1.498771,12
-5.70357,8.32383,1.936582,177
-6.944257,8.418173,1.088611,1
-6.739613,8.790401,1.031258,94
-6.903232,8.126869,1.417879,89
-6.549346,8.294882,1.350686,1
-6.911685,9.471157,1.447497,1
-8.278522,8.727091,1.999206,72
-6.670537,7.904755,1.640007,183
-6.158962,7.794032,2.000844,109
-8.464352,8.74896,1.346851,1
-5.716962,8.259789,1.927765,175
-5.371037,8.724909,1.872662,17
-7.011895,8.4189,1.093529,146
-6.771245,8.745945,1.029578,90
-7.018922,8.184236,1.435219,105
-6.514468,8.170873,1.333935,1
-6.790591,9.493046,1.036559,43
-6.947989,9.427327,1.44562,58
-8.643591,9.027516,2.078537,33
-6.796263,7.976756,1.662055,175
-5.942543,7.776829,1.460778,189
-6.238282,7.818613,2.014892,77
-5.746137,8.191612,1.920097,179
-5.4517,8.732738,1.881811,140
-6.812593,8.685987,1.027267,91
-7.150841,8.232455,1.453137,92
-6.49989,8.047994,1.319139,174
-6.72601,9.279623,1.015323,39
-6.989256,9.359696,1.441597,95
-6.709221,9.687046,1.372087,1
-8.689178,8.961684,2.07587,28
-6.931568,8.032384,1.683144,148
-6.084228,7.85991,1.484027,191
-6.335196,7.838789,2.030547,58
-8.28266,8.926541,1.278711,1
-5.787228,8.140969,1.916647,180
-5.498074,8.685005,1.878883,94
-6.864564,8.639893,1.026847,91
-7.298048,8.295655,1.474235,106
-6.636645,8.112931,1.338402,90
-6.752301,9.193933,1.009913,68
-7.02036,9.279293,1.435428,49
-6.791555,9.675587,1.37692,1
-8.937039,9.102818,2.122202,75
-7.078253,8.098495,1.706789,158
-6.132276,7.819969,1.483725,81
-6.475938,7.911206,2.06025,36
-8.277476,8.809073,1.268305,131
-5.817554,8.07582,1.909746,179
-5.526063,8.608869,1.869735,111
-7.373947,8.52082,1.128622,49
-6.912494,8.588833,1.025797,92
-7.447648,8.358801,1.495621,92
-6.736651,8.130641,1.34929,110
-6.77421,9.103496,1.003903,82
-7.093026,9.253851,1.438647,98
-9.030149,9.082903,2.130869,53
-7.233907,8.171931,1.732351,142
-6.205821,7.812296,1.489764,161
-6.52926,7.874893,2.061454,40
-5.858896,8.026443,1.906679,180
-5.55866,8.540976,1.862416,96
-6.973845,8.554494,1.027057,105
-6.818066,9.043299,1.001699,86
-6.884828,9.550811,1.370815,1
-9.119169,9.058001,2.138535,15
-7.393401,8.246662,1.758553,132
-6.310418,7.842578,1.503351,101
-6.625121,7.889321,2.076305,7
-8.380638,8.697199,1.267149,136
-5.893996,7.968988,1.901695,176
-5.590623,8.473015,1.855098,118
-7.037566,8.522796,1.028737,90
-7.746054,8.476035,1.537527,136
-6.95346,8.181376,1.374417,63
-6.851748,8.970276,0.9978926,85
-6.902677,9.449622,1.361657,1
-7.584701,8.35327,1.792103,135
-6.406916,7.861106,1.514824,128
-6.760678,7.949197,2.1036,1
-5.92206,7.928563,1.898628,177
-5.610917,8.417087,1.848511,103
-7.120857,8.541557,1.035879,116
-7.898848,8.561421,1.561804,89
-7.067857,8.237337,1.390889,148
-6.869579,8.906419,0.9938856,74
-6.927157,9.389816,1.357333,30
-7.737598,8.440939,1.819263,138
-6.512815,7.914931,1.53143,98
-6.894848,8.030415,2.134105,129
-5.951568,7.86463,1.892111,179
-5.639545,8.345777,1.840461,100
-8.070247,8.637225,1.586947,94
-7.205025,8.291587,1.409315,84
-6.913123,8.847422,0.9918822,89
-6.559514,8.15589,1.277195,1
-6.971799,9.327015,1.35428,40
-7.911602,8.522167,1.848021,144
-6.616716,7.939268,1.544414,133
-6.00326,7.830191,1.892878,179
-5.673038,8.282562,1.83424,104
-8.174701,8.893045,1.21982,46
-7.37468,8.62399,1.059827,33
-8.253806,8.722689,1.614403,91
-7.348372,8.350391,1.428857,98
-6.957435,8.789788,0.9900791,79
-6.606865,8.109913,1.27639,169
-7.035044,9.28936,1.355297,29
-8.076088,8.590048,1.874222,135
-6.733902,7.977742,1.560416,91
-6.046304,7.784578,1.890961,179
-5.704843,8.21764,1.827653,103
-8.43601,8.803329,1.641281,85
-7.474329,8.386985,1.444492,112
-7.000049,8.730398,0.9880756,89
-6.74114,8.168972,1.294091,80
-8.282649,8.699019,1.910009,85
-6.858238,8.02258,1.577928,110
-6.110917,7.766456,1.895945,171
-5.745081,8.165529,1.823994,108
-8.630593,8.893361,1.67047,98
-7.632815,8.457664,1.466826,88
-7.053508,8.684701,0.9878753,80
-8.510113,8.825593,1.95027,102
-6.985984,8.069162,1.596044,98
-6.190259,7.766219,1.905529,138
-5.775785,8.100411,1.817407,109
-8.859982,9.015111,1.706596,31
-7.78048,8.5135,1.486648,116
-7.111737,8.644814,0.9884763,101
-7.391304,8.72848,1.408609,60
-8.696654,8.905927,1.980625,37
-7.143195,8.14721,1.620803,88
-6.283544,7.807188,1.923164,126
-5.805872,8.061919,1.814846,108
-7.96278,8.88092,1.121165,1
-9.005675,9.077057,1.727983,23
-7.923717,8.589003,1.508145,92
-7.174057,8.63719,0.9918822,55
-7.398799,8.654446,1.401636,62
-8.928721,9.057161,2.024401,105
-7.278272,8.223193,1.643146,114
-6.392157,7.840459,1.941566,120
-5.829829,7.988695,1.806429,109
-8.151875,8.97819,1.142171,1
-9.174918,9.131804,1.751103,1
-8.080085,8.649209,1.529363,117
-7.252577,8.620831,0.9956887,153
-7.49853,8.660148,1.411023,38
-6.665957,8.273867,1.223525,1
-9.074866,9.090163,2.044851,77
-7.456218,8.318868,1.672131,85
-6.492663,7.862094,1.957284,83
-5.871747,7.940824,1.803868,116
-8.256538,8.727958,1.55449,90
-7.389373,8.671882,1.008511,95
-6.695288,8.204112,1.218946,154
-9.157106,9.057917,2.050602,89
-7.602496,8.375965,1.693568,102
-5.910944,7.88959,1.800574,86
-8.443868,8.814854,1.58157,118
-7.525791,8.720045,1.021133,95
-7.514453,8.461667,1.392249,1
-6.818578,8.249174,1.233446,64
-7.773818,8.457793,1.72044,96
-6.682516,7.887538,1.984887,150
-5.949728,7.838178,1.797281,141
-8.639493,8.906853,1.610047,100
-7.667039,8.77132,1.034355,70
-7.705579,8.567296,1.420141,1
-7.949152,8.540693,1.747916,93
-6.906321,8.073378,2.04086,53
-5.990178,7.814743,1.798379,88
-8.826609,9.014857,1.639361,61
-7.797999,8.836397,1.047979,117
-7.783243,8.571908,1.427651,143
-7.368846,8.719994,1.325026,49
-8.121736,8.644575,1.777506,110
-7.023896,8.106842,2.060795,139
-6.03916,7.776951,1.798379,111
-9.222751,9.302914,1.707482,36
-7.935739,8.879076,1.0604,114
-7.931033,8.624795,1.446424,78
-7.438937,8.691634,1.328078,37
-8.311922,8.736844,1.807699,90
-6.10488,7.760523,1.803502,95
-9.227785,9.191589,1.696873,158
-8.08791,8.684847,1.466807,125
-7.323535,8.448053,1.294754,10
-8.507692,8.831338,1.838798,97
-6.196297,7.77592,1.816309,99
-8.251299,8.749022,1.488262,86
-7.372552,8.397392,1.29399,1
-8.696702,8.915205,1.868085,58
-6.298002,7.802733,1.832044,94
-8.410325,8.805758,1.508645,107
-8.960614,9.071708,1.913375,59
-6.39532,7.822473,1.846316,90
-8.597991,8.889284,1.534392,115
-9.088629,9.086631,1.928774,90
-6.49704,7.871231,1.865344,79
-8.786799,8.998743,1.56282,75
-9.173424,9.085505,1.937832,80
-8.985538,9.086877,1.590176,59
-8.202596,8.912861,1.414315,1
-6.809665,8.042987,1.927186,86
-9.199772,9.186845,1.620213,105
-8.209832,8.808822,1.405157,1
-6.95329,8.109183,1.953899,34
-8.424041,8.926126,1.43492,1
-7.104444,8.181323,1.982441,75
-8.512795,8.907494,1.441026,129
-7.246408,8.240047,2.008056,105
-8.684281,8.973764,1.462394,66
-8.855179,9.064919,1.486052,73
-9.076315,9.175782,1.51607,64
